#!ascii version written be Caret
18484 33734
14189 14410 14193 0
14659 14663 14664 0
14659 14660 14663 0
14660 14656 14663 0
14665 14663 14656 0
14666 14665 14661 0
14665 14656 14661 0
14662 14666 14661 0
14667 13950 14668 0
14422 14669 14424 0
14425 14424 14670 0
14424 14669 14670 0
14663 14671 14664 0
14665 14671 14663 0
14672 14671 14665 0
14666 14672 14665 0
13950 14192 14673 0
13950 14673 14668 0
14192 14193 14673 0
14425 14670 14426 0
14184 14431 14418 0
14418 14431 14674 0
14419 14428 14675 0
14426 14670 14676 0
14426 14676 14430 0
14430 14676 14434 0
14675 14428 14433 0
14435 14434 14676 0
14433 14437 14678 0
14435 14676 14438 0
14678 14437 14442 0
14444 14205 14439 0
14442 14679 14678 0
14446 14444 14681 0
13973 14446 14681 0
14682 14683 14431 0
13973 14681 14687 0
13973 14687 13978 0
14682 14431 14447 0
14442 14448 14679 0
13978 14687 14450 0
14691 14448 14452 0
14450 14687 14454 0
13707 14455 14692 0
14447 14456 14692 0
14692 14456 13707 0
14457 14693 14452 0
14457 14694 14693 0
14460 14694 14457 0
14461 14694 14460 0
14461 14695 14694 0
14463 14695 14461 0
14463 14696 14695 0
14463 14697 14696 0
14463 14699 14697 0
13991 14699 14463 0
14226 14700 13991 0
13991 14700 14699 0
14226 14465 14701 0
14701 14465 14702 0
14465 14466 14702 0
14226 14704 14700 0
14701 14704 14226 0
14705 14704 14701 0
14705 14701 14469 0
14701 14702 14469 0
14466 14467 14469 0
14702 14466 14469 0
14470 14471 14707 0
14709 14710 14474 0
14711 14712 14473 0
14711 14473 14710 0
14710 14473 14474 0
14475 14473 14712 0
14476 14713 14233 0
14713 14714 14233 0
14233 14714 14234 0
14234 14714 14478 0
13996 14715 14707 0
14471 13996 14707 0
14474 14477 14709 0
14478 14716 14238 0
14238 14716 14479 0
14716 14244 14479 0
14481 14715 13996 0
14709 14477 14717 0
14477 14483 14717 0
14483 14718 14717 0
14244 14719 14489 0
14489 14720 14721 0
14719 14720 14489 0
14721 14720 14481 0
14721 14481 14485 0
14485 14481 13432 0
14722 14718 14482 0
14482 14718 14483 0
14721 14723 14489 0
14723 14724 14489 0
14485 14486 14723 0
14721 14485 14723 0
14725 14722 14488 0
14722 14482 14488 0
14489 14724 14245 0
14723 14245 14724 0
14490 14245 14723 0
14486 14490 14723 0
14726 14488 14491 0
14491 14727 14726 0
14494 14727 14491 0
14494 14728 14727 0
14494 14495 14728 0
14495 14730 14728 0
14731 14730 14732 0
14496 14730 14495 0
14496 14733 14730 0
14732 14730 14734 0
14734 14730 14733 0
14735 14732 14734 0
14497 14733 14496 0
14734 14733 14497 0
14258 14734 14497 0
14258 14735 14734 0
14736 14735 14258 0
14498 14736 14258 0
14737 14736 14498 0
14738 14737 14498 0
14739 14737 14738 0
14740 14739 14738 0
14498 14499 14738 0
14030 14738 14499 0
14740 14738 14030 0
14741 14740 14030 0
13763 14741 14030 0
13763 13463 14742 0
14743 13463 13775 0
13775 14500 14744 0
14500 14504 14745 0
14502 14505 14746 0
14746 14503 14502 0
14273 14508 14745 0
14508 14747 14745 0
14504 14273 14745 0
14505 14507 14746 0
14507 14750 14746 0
14750 14503 14746 0
14503 14750 14506 0
12524 14751 14747 0
12524 14747 14509 0
14509 14747 14508 0
14750 14507 14752 0
14507 14275 14752 0
14753 14506 14750 0
14269 14506 14753 0
14269 14753 14511 0
14512 14511 13220 0
14511 14753 13220 0
14272 14512 13220 0
13221 14272 13220 0
12524 13220 14754 0
14751 12524 14754 0
14752 14275 14049 0
14755 14752 14049 0
14049 14277 14755 0
14755 14277 14756 0
14756 14277 14278 0
14757 14756 14278 0
14757 14278 14516 0
14757 14516 14758 0
14513 14759 14283 0
14759 14760 14283 0
14760 14515 14283 0
14516 14517 14761 0
14762 14758 14516 0
14761 14762 14516 0
14515 14760 14763 0
14523 14761 14517 0
14523 14764 14761 0
14764 14765 14761 0
14765 14762 14761 0
14521 14759 14513 0
14521 14766 14759 0
14764 14523 14767 0
14768 14764 14767 0
14765 14764 14768 0
14769 14765 14768 0
14762 14765 14769 0
14766 14526 14770 0
14521 14526 14766 0
14759 14766 14760 0
14760 14766 14770 0
14531 14771 14526 0
14526 14771 14770 0
14771 14772 14770 0
14772 14760 14770 0
14532 14528 14300 0
14771 14531 14772 0
14772 14531 14774 0
14775 14760 14772 0
14532 14776 14533 0
14533 14776 14535 0
14534 14777 14530 0
14778 14777 14534 0
14530 14777 14531 0
14777 14779 14531 0
14779 14774 14531 0
14780 14532 14773 0
14535 14776 14305 0
14534 14536 14781 0
14534 14781 14778 0
14777 14778 14779 0
14782 14532 14780 0
14776 14532 14783 0
14783 14532 14782 0
14305 14783 14538 0
14776 14783 14305 0
14778 14781 14779 0
14783 14784 14538 0
14784 14541 14538 0
14541 14784 14544 0
14781 14546 14785 0
14536 14546 14781 0
14779 14781 14785 0
14543 14544 14311 0
14552 14779 14785 0
14786 14311 14544 0
14547 14785 14546 0
14547 14787 14785 0
14787 14552 14785 0
14311 14788 14549 0
14786 14788 14311 0
14547 14552 14787 0
14550 14549 14079 0
14789 14790 14552 0
14551 14789 14552 0
14551 14554 14791 0
14551 14791 14789 0
14079 14549 14792 0
14554 14556 14791 0
14079 14793 14794 0
14792 14793 14079 0
14555 14557 14795 0
14555 14795 14556 0
14556 14795 14791 0
14079 14794 13535 0
14557 14560 14796 0
14795 14557 14796 0
13535 14794 14561 0
14796 14560 14563 0
13814 14565 14797 0
13814 14797 14563 0
14567 14568 14566 0
14566 14568 14798 0
14568 14319 14799 0
14568 14799 14798 0
14800 14082 14084 0
14315 14800 14084 0
14798 14801 14566 0
14799 14801 14798 0
14802 13830 14570 0
14566 14803 14569 0
14803 14566 14801 0
14804 14801 14799 0
14319 14804 14799 0
14319 14805 14804 0
13835 14806 14091 0
14091 14806 14807 0
14802 14570 14571 0
14802 14571 14808 0
14319 14574 14805 0
14807 14809 14091 0
14810 14808 14571 0
14572 14810 14571 0
14088 14569 14320 0
14091 14809 12866 0
14809 14811 12866 0
14575 14810 14572 0
14810 14575 14812 0
14573 14320 14569 0
14573 14569 14803 0
14573 14803 14579 0
14813 14812 14575 0
14576 14813 14575 0
14578 14814 14813 0
14578 14813 14576 0
14579 14815 14580 0
14815 14816 14580 0
14817 14574 13847 0
14814 14581 14818 0
14578 14581 14814 0
14816 14582 14580 0
14816 14819 14582 0
14581 14590 14818 0
14590 14814 14818 0
14099 14582 14819 0
14586 14099 14819 0
14820 14814 14590 0
14581 14588 14590 0
14821 14589 14586 0
14821 14822 14589 0
14590 14348 14823 0
14348 14824 14825 0
14823 14348 14825 0
14589 14822 14591 0
14822 14826 14591 0
14592 14827 13573 0
14828 14827 14592 0
14602 14824 14348 0
14829 14591 14826 0
14595 14828 14592 0
14830 14828 14596 0
14596 14828 14595 0
14600 14591 14829 0
14596 14597 14831 0
14596 14831 14830 0
14831 14597 14832 0
14597 14598 14832 0
14602 14603 14833 0
14833 14603 14834 0
14831 14835 14830 0
14832 14836 14831 0
14836 14835 14831 0
14598 14601 14836 0
14598 14836 14832 0
14601 14347 14836 0
14349 14834 14603 0
14837 14834 14349 0
14836 14838 14835 0
14836 14347 14606 0
14606 14347 14112 0
14839 13880 14121 0
14605 14840 13083 0
14841 14606 14351 0
14840 14354 13083 0
14840 14842 14354 0
14609 14127 14843 0
14354 14842 14611 0
14842 14844 14611 0
14351 14608 14841 0
14349 14357 14837 0
14844 14615 14610 0
14844 14610 14611 0
14844 14845 14615 0
14846 14362 14847 0
14362 14609 14847 0
14615 14845 14617 0
14845 14616 14617 0
14848 14849 14850 0
14850 14618 14851 0
14362 14846 14619 0
14852 14613 14360 0
14853 14848 14854 0
14372 14849 14620 0
14850 14849 14372 0
14618 14850 14372 0
14851 14618 14619 0
14852 14360 14371 0
14849 14848 14621 0
14620 14849 14621 0
14380 14855 14357 0
14371 14378 14852 0
14621 14848 14856 0
14380 14857 14855 0
13903 14858 14380 0
14380 14858 14857 0
14378 14624 14852 0
14621 14856 14622 0
13903 14859 14858 0
14860 14852 14624 0
14624 14382 14860 0
14861 14862 14848 0
14856 14848 14862 0
14860 14382 14863 0
14622 14856 14626 0
14383 14864 13903 0
14382 14385 14863 0
14865 14862 14861 0
14383 14630 14864 0
14385 14387 14866 0
14385 14866 14863 0
14387 14627 14866 0
14626 14856 14867 0
14856 14868 14867 0
14626 14867 14625 0
14869 14870 14863 0
14866 14638 14863 0
14638 14869 14863 0
14627 14156 14638 0
14866 14627 14638 0
14868 14629 14867 0
14867 14629 14625 0
14396 14871 14630 0
14628 14389 14872 0
14638 14873 14869 0
14156 14395 14638 0
14874 14871 14396 0
14875 14633 14632 0
14876 14877 14874 0
14635 14628 14872 0
14635 14872 14878 0
14873 14638 14872 0
14638 14878 14872 0
14395 14636 14638 0
14879 14633 14875 0
14633 14879 14637 0
14638 14635 14878 0
14636 14639 14638 0
14396 14880 14874 0
14881 14643 14637 0
14175 14646 14880 0
14175 14880 14396 0
14882 14643 14881 0
14643 14882 14645 0
14883 14645 14882 0
14883 14652 14645 0
14884 14885 14886 0
14887 14885 14884 0
14885 14888 14886 0
14650 14889 14653 0
14889 14650 14890 0
14650 14651 14890 0
14410 14652 14891 0
14891 14652 14883 0
14892 14647 14893 0
14648 14894 14657 0
14894 14648 14895 0
14648 14649 14895 0
14649 14418 14895 0
14890 14897 14889 0
14897 14896 14889 0
14651 14654 14898 0
14651 14898 14890 0
14890 14898 14897 0
14654 13950 14898 0
14410 14891 14899 0
14886 14900 14884 0
14888 14420 14886 0
14421 14420 14901 0
14901 14420 14888 0
14421 14901 14902 0
14893 14647 14659 0
14657 14894 14662 0
14895 14903 14894 0
14903 14662 14894 0
14897 14898 14905 0
13950 14667 14905 0
14898 13950 14905 0
14410 14899 14193 0
14900 14886 14420 0
14422 14421 14902 0
14893 14659 14664 0
14662 14906 14666 0
14906 14907 14666 0
14903 14906 14662 0
14903 14908 14909 0
14903 14895 14908 0
14895 14418 14908 0
14667 14668 14905 0
14911 14420 14419 0
14422 14902 14669 0
14670 14669 14902 0
14664 14671 14912 0
14672 14913 14671 0
14907 14672 14666 0
14913 14672 14907 0
14914 14915 14916 0
14668 14917 14905 0
14905 14917 14915 0
14918 14909 14908 0
14418 14674 14918 0
14908 14418 14918 0
14916 14915 14919 0
14915 14917 14919 0
14668 14673 14920 0
14917 14668 14920 0
14673 14193 14920 0
14675 14911 14419 0
14676 14670 14921 0
14919 14917 14920 0
14922 14675 14433 0
14431 14683 14918 0
14683 14923 14918 0
14674 14431 14918 0
14922 14433 14678 0
14676 14921 14439 0
14676 14439 14438 0
14438 14439 13965 0
14924 14444 14439 0
14444 14924 14681 0
14683 14682 14923 0
14923 14682 14925 0
14682 14927 14925 0
14679 14448 14928 0
14928 14448 14691 0
14929 14927 14682 0
14682 14447 14929 0
14454 14687 14455 0
14687 14931 14455 0
14447 14692 14929 0
14452 14935 14691 0
14693 14935 14452 0
14694 14937 14935 0
14694 14935 14693 0
14694 14695 14937 0
14696 14943 14695 0
14697 14943 14696 0
14697 14945 14943 0
14697 14699 14945 0
14700 14946 14699 0
14699 14946 14945 0
14700 14947 14946 0
14704 14947 14700 0
14704 14705 14947 0
14469 14948 14705 0
14949 14948 14469 0
14469 14470 14949 0
14951 14711 14709 0
14475 14712 14952 0
14475 14952 14476 0
14470 14707 14949 0
14709 14953 14951 0
14711 14710 14709 0
14949 14707 14715 0
14955 14956 14957 0
14955 14953 14958 0
14957 14953 14955 0
14953 14709 14958 0
14716 14478 14959 0
14960 14716 14959 0
14961 14956 14955 0
14962 14956 14961 0
14709 14717 14961 0
14709 14961 14958 0
14958 14961 14955 0
14963 14964 14962 0
14962 14961 14963 0
14961 14965 14963 0
14717 14718 14965 0
14961 14717 14965 0
14244 14716 14960 0
14244 14960 14719 0
14720 14719 14966 0
14967 14481 14720 0
14966 14967 14720 0
14968 14964 14963 0
14969 14964 14968 0
14718 14722 14968 0
14718 14968 14965 0
14965 14968 14963 0
14968 14970 14969 0
14970 14968 14722 0
14970 14722 14971 0
14971 14722 14725 0
14488 14972 14725 0
14972 14971 14725 0
14973 14974 14975 0
14488 14976 14972 0
14726 14976 14488 0
14726 14727 14976 0
14728 14976 14727 0
14973 14731 14977 0
14974 14973 14977 0
14731 14728 14730 0
14977 14731 14732 0
14732 14978 14977 0
14974 14977 14979 0
14979 14977 14978 0
14732 14735 14978 0
14736 14978 14735 0
14979 14978 14736 0
14980 14974 14979 0
14736 14981 14979 0
14980 14979 14982 0
14982 14979 14981 0
14983 14980 14984 0
14984 14980 14982 0
14736 14737 14981 0
14739 14981 14737 0
14982 14981 14739 0
14739 14985 14982 0
14985 14984 14982 0
14986 14984 14985 0
14739 14740 14985 0
14741 14985 14740 0
14986 14985 14741 0
14987 14986 14741 0
14741 14988 14989 0
14741 13763 14988 0
14988 13763 14742 0
14742 13463 14990 0
14991 14990 14743 0
14743 14990 13463 0
14990 14992 14993 0
14990 14991 14992 0
14991 14994 14992 0
14743 13775 14994 0
14991 14743 14994 0
13775 14744 14994 0
14994 14744 14992 0
14744 14500 14995 0
14995 14500 14745 0
14747 14995 14745 0
14996 14995 14747 0
14751 14996 14747 0
14751 14999 14996 0
14750 14752 15000 0
15000 14753 14750 0
15001 14754 13220 0
14999 14751 14754 0
15001 14999 14754 0
15002 14753 15000 0
15002 15000 14755 0
15002 14755 15003 0
14752 14755 15000 0
15004 13220 14753 0
15005 13220 15004 0
15003 14755 14756 0
15003 14756 14757 0
15003 14757 15008 0
15008 14757 15009 0
15009 14757 14758 0
15010 15009 14758 0
14758 14762 15010 0
14763 15011 14515 0
14515 15011 14522 0
15011 14763 15012 0
14522 15011 15013 0
15011 15012 15013 0
14522 15014 14523 0
15013 15014 14522 0
15014 14767 14523 0
15015 14769 14768 0
15016 14762 14769 0
15015 15016 14769 0
15017 14768 14767 0
15015 14768 15017 0
14760 14775 14763 0
14775 15018 14763 0
15019 14763 15018 0
15019 15012 14763 0
15020 15018 14775 0
14774 14775 14772 0
15021 14775 14774 0
14779 15021 14774 0
15022 14775 15021 0
15023 14782 14780 0
15023 14780 15024 0
14782 15025 14783 0
15023 15025 14782 0
14783 15025 14784 0
14784 15025 14544 0
15026 15022 15021 0
15027 15023 15024 0
14779 14552 15026 0
14779 15026 15021 0
15028 15023 15027 0
15025 15023 15029 0
15029 15023 15028 0
14544 15029 14786 0
15025 15029 14544 0
14788 15030 14549 0
14788 15028 15030 0
14788 15029 15028 0
14786 15029 14788 0
14552 14790 15031 0
14790 14789 15032 0
15031 14790 15032 0
14549 15030 14792 0
15030 15033 14792 0
14791 15032 14789 0
15034 14795 14796 0
14794 14793 14561 0
14561 14793 15035 0
15034 14796 14563 0
14561 15035 14565 0
14561 14565 14564 0
14797 15034 14563 0
14315 14085 15036 0
14085 14086 15036 0
15036 14086 15037 0
15037 14086 13830 0
14082 15038 14806 0
13835 14082 14806 0
15038 14082 14800 0
14802 15037 13830 0
14801 15039 14803 0
14801 14804 15039 0
14804 14805 15040 0
15039 14804 15040 0
14802 15041 15037 0
15041 14802 14808 0
14805 14574 15042 0
14805 15042 15040 0
15040 15042 15039 0
14809 14807 15043 0
14807 14806 15043 0
15044 15041 14810 0
15041 14808 14810 0
14803 15039 14579 0
15045 14579 15039 0
15046 15045 15039 0
15042 15046 15039 0
15047 14809 15043 0
14811 14809 15047 0
14810 14812 15044 0
15048 15046 15042 0
14574 15048 15042 0
14574 15049 15048 0
14811 15050 14333 0
14811 14333 12866 0
15047 15050 14811 0
14815 14579 15051 0
15051 14579 15045 0
15052 15051 15045 0
14574 14817 15049 0
15051 15053 14816 0
14815 15051 14816 0
15052 15053 15051 0
15054 14812 14813 0
14819 14816 15053 0
14819 15053 15052 0
15055 15056 15052 0
15056 14819 15052 0
13847 13573 14817 0
14819 15056 15057 0
14819 15057 14586 0
15058 15059 13573 0
14820 14813 14814 0
14820 15060 14813 0
15060 15054 14813 0
14586 15057 14821 0
15057 15061 14821 0
14827 15058 13573 0
15062 15058 14827 0
14820 14590 15060 0
14590 15063 15060 0
15061 14822 14821 0
15064 14822 15061 0
15065 15062 14827 0
14333 15066 13597 0
14590 14823 15063 0
14824 15067 15068 0
14824 15068 14825 0
14825 15068 14823 0
15064 14826 14822 0
15064 15069 14826 0
14827 15070 15065 0
14827 14828 15070 0
15071 13597 15066 0
14824 14602 15067 0
14602 15072 15067 0
14826 15069 14829 0
15069 15073 14829 0
14828 15074 15070 0
15070 15074 15075 0
14828 14830 15074 0
15071 15076 13597 0
14602 14833 15077 0
14602 15077 15072 0
15075 15074 15078 0
15074 14830 15078 0
13868 15076 15079 0
13868 13597 15076 0
14833 14834 15077 0
15080 15081 15077 0
14834 15080 15077 0
15078 14830 14835 0
14121 13868 15079 0
14121 15079 15082 0
15082 15079 15083 0
14839 15082 15083 0
14834 14837 15080 0
14838 14836 15084 0
14836 14606 15084 0
14839 14121 15082 0
14607 13880 15085 0
14127 14607 15085 0
15086 15087 14838 0
15084 15086 14838 0
15088 14127 15089 0
15086 15090 15087 0
15091 15090 15086 0
15091 15086 15092 0
15084 15093 15086 0
15093 15092 15086 0
14606 14841 15094 0
14606 15094 15084 0
14843 14127 15088 0
15095 15096 15088 0
15096 14843 15088 0
15097 15095 15098 0
15096 15095 15097 0
15094 15093 15084 0
15099 14843 15096 0
15099 14609 14843 0
15099 14847 14609 0
15097 15099 15096 0
14842 15100 14844 0
15093 15094 15101 0
14841 14608 15101 0
15094 14841 15101 0
15100 14845 14844 0
15102 14845 15100 0
15101 14608 15103 0
15103 14608 14613 0
15104 14851 15105 0
14846 15104 15105 0
14837 14357 15106 0
15102 14616 14845 0
15102 15107 14616 0
15108 15103 14613 0
15105 14851 14619 0
14846 15105 14619 0
14613 14852 15108 0
14357 14855 15106 0
14616 15107 14389 0
14389 15107 15109 0
15110 14858 15111 0
14389 15109 15112 0
14855 14857 15110 0
14858 15110 14857 0
15113 14389 15112 0
14860 15114 14852 0
14848 14853 14861 0
14853 15115 14861 0
14630 15116 14864 0
15116 15117 14864 0
15118 15117 15119 0
15119 15117 15116 0
14870 14860 14863 0
14861 15115 14865 0
15115 15120 14865 0
14871 15116 14630 0
15119 15116 14871 0
14871 15118 15119 0
15121 14862 14865 0
15121 14865 15120 0
14862 15121 14856 0
14856 15122 14868 0
15121 15122 14856 0
15123 15124 14872 0
14870 15125 15124 0
14870 14869 15125 0
14629 14868 15122 0
14389 15123 14872 0
15124 14873 14872 0
15125 14873 15124 0
14869 14873 15125 0
14629 15126 14632 0
14871 14874 14877 0
14871 14877 15127 0
15127 14877 15128 0
14875 14632 15126 0
14877 15129 15128 0
14876 15129 14877 0
14876 15130 15129 0
15131 14879 14875 0
14876 14874 15132 0
14876 15132 15130 0
14637 15131 14881 0
14637 14879 15131 0
15133 15134 15135 0
14874 14880 15132 0
15136 15132 14880 0
15134 14887 15135 0
14646 15136 14880 0
14646 15137 15136 0
15138 15139 15135 0
14887 15138 15135 0
15134 14885 14887 0
14646 14647 15137 0
15137 14647 15140 0
14883 14882 15141 0
15142 15139 15138 0
14887 15143 15138 0
14887 14884 15143 0
14888 14885 15144 0
15144 14885 15145 0
15146 15147 15145 0
15147 15144 15145 0
15147 15148 15149 0
15146 15148 15147 0
15150 15140 14892 0
15140 14647 14892 0
14883 15151 14891 0
15141 15151 14883 0
15142 15138 15152 0
15138 15143 15152 0
14884 14900 15152 0
15143 14884 15152 0
14901 14888 15144 0
15147 14901 15144 0
14902 14901 15147 0
14902 15147 15149 0
15153 15149 15148 0
15153 15154 15149 0
15154 14902 15149 0
14892 14893 15150 0
14893 15155 15150 0
14899 15151 15156 0
14899 14891 15151 0
15152 15157 15142 0
14900 15157 15152 0
14893 14664 15155 0
15158 14896 15159 0
14896 14897 15159 0
14897 14905 15159 0
14900 15160 15157 0
14900 14420 15160 0
15154 14670 14902 0
14670 15154 14921 0
14664 14912 15155 0
15159 15162 15158 0
15162 15161 15158 0
14905 14915 15162 0
15159 14905 15162 0
14899 15163 14193 0
15160 14420 14911 0
15160 14911 15164 0
15160 15164 15157 0
14671 15165 14912 0
14913 15165 14671 0
14907 15166 14913 0
14906 15166 14907 0
14903 14909 15167 0
15169 15161 15162 0
14915 15169 15162 0
14915 14914 15169 0
14914 15170 15169 0
15170 14914 14916 0
15171 15170 14916 0
14911 15172 15164 0
14913 15173 15165 0
14909 14918 15167 0
15174 15175 14916 0
15175 15171 14916 0
14911 14675 15172 0
14916 14919 15176 0
14916 15176 15174 0
14675 14922 15177 0
14918 14923 15167 0
15178 15174 15179 0
15176 15179 15174 0
14919 15180 15176 0
14920 15180 14919 0
14920 14193 15180 0
14922 14678 15177 0
14439 14921 15181 0
14924 14439 15181 0
15178 15179 15183 0
15179 15176 15183 0
15180 15183 15176 0
14678 15184 15177 0
14678 15185 15186 0
14678 14679 15185 0
14679 14928 15187 0
14679 15187 15185 0
14923 14925 15188 0
14928 15189 15187 0
15188 14925 14927 0
15190 15188 14927 0
15191 14687 14681 0
14927 14929 15190 0
15190 14929 15192 0
14687 15191 14931 0
14455 14931 15193 0
14692 14455 15193 0
15192 14929 14692 0
15193 15192 14692 0
14935 15194 14691 0
14937 15194 14935 0
14943 15198 14695 0
14943 14945 15198 0
14946 14947 15202 0
14947 15203 15202 0
14948 15203 14705 0
14705 15203 14947 0
15208 15209 14951 0
14712 14711 15210 0
14712 15210 14952 0
14476 14952 15211 0
14476 15211 14713 0
14951 14953 15208 0
14957 15213 15214 0
14956 15213 14957 0
15208 14953 15214 0
15214 14953 14957 0
14481 15215 14715 0
14481 15216 15215 0
14962 15213 14956 0
14967 15216 14481 0
14962 14964 15213 0
14966 14719 14960 0
14966 14960 15217 0
15217 14967 14966 0
14970 15218 14969 0
15218 14964 14969 0
14970 15219 15218 0
14970 14971 14972 0
14970 14972 15220 0
14970 15220 15219 0
15221 15222 15223 0
14973 15224 15223 0
15224 15221 15223 0
14975 15224 14973 0
15225 14975 14974 0
14974 15226 15225 0
14972 14976 15220 0
15227 15220 14976 0
15222 15227 14976 0
14728 15222 14976 0
14731 15222 14728 0
15223 15222 14731 0
14973 15223 14731 0
14974 14980 15226 0
14980 15228 15226 0
14980 14983 15230 0
14980 15230 15228 0
15230 14984 15232 0
14983 14984 15230 0
15233 15234 15230 0
15233 15230 14987 0
14987 15230 15232 0
15233 14987 15235 0
14984 14986 15232 0
14987 15232 14986 0
15235 14987 14741 0
15235 14741 14989 0
15235 14989 15236 0
15236 14989 15237 0
14989 15238 15237 0
14988 15238 14989 0
15238 14988 14742 0
15238 14742 15239 0
14742 14990 15239 0
15240 15239 14990 0
15241 14993 14992 0
15241 15242 14993 0
15242 15240 14993 0
15240 14990 14993 0
14992 14744 15243 0
15241 14992 15243 0
14744 14995 15243 0
14995 14996 15243 0
15001 15246 14999 0
14999 15246 14996 0
15002 15003 15247 0
15002 15004 14753 0
15247 15004 15002 0
15005 15248 13220 0
13220 15248 15246 0
13220 15246 15001 0
15249 15250 15251 0
15252 15250 15249 0
15008 15247 15003 0
15008 15253 15247 0
15253 15004 15247 0
15253 15009 15254 0
15008 15009 15253 0
15254 15009 15010 0
15010 14762 15254 0
15254 14762 15255 0
14762 15016 15255 0
15258 15016 15015 0
15012 15259 15013 0
15260 15259 15012 0
15259 15014 15013 0
15258 15017 14767 0
15258 15015 15017 0
15012 15019 15261 0
15012 15261 15260 0
15261 15262 15260 0
15262 15259 15260 0
15263 14767 15014 0
15258 14767 15263 0
15018 15261 15019 0
15265 15261 15018 0
15261 15265 15262 0
15262 15265 15266 0
14775 15267 15020 0
15268 15267 14775 0
15020 15265 15018 0
15020 15267 15265 0
15267 15269 15265 0
15269 15266 15265 0
14773 15264 14780 0
15022 15268 14775 0
14780 15264 15024 0
15022 15270 15268 0
15270 15271 15268 0
15272 15267 15271 0
15271 15267 15268 0
15022 15273 15270 0
15271 15270 15273 0
15274 15271 15273 0
15272 15271 15274 0
15024 15275 15027 0
15273 15022 15276 0
15277 15028 15027 0
15028 15277 15030 0
15026 14552 15031 0
15026 15031 15278 0
15022 15026 15278 0
15276 15022 15278 0
15279 15031 15032 0
15030 15280 15033 0
15277 15280 15030 0
15281 15279 15032 0
15280 15282 15033 0
15282 14792 15033 0
14791 15281 15032 0
14792 15282 14793 0
14791 14795 15281 0
15281 14795 15283 0
15282 15284 14793 0
15283 14795 15034 0
15285 15035 15284 0
15284 15035 14793 0
15286 15287 15034 0
15287 15283 15034 0
15035 15285 14565 0
15288 14565 15285 0
14797 14565 15288 0
15289 14797 15288 0
15286 14797 15289 0
15034 14797 15286 0
15036 15290 14315 0
14315 15290 15291 0
15290 15036 15037 0
14800 15292 15038 0
14800 15293 15292 0
14800 14315 15293 0
15291 15293 14315 0
15037 15294 15290 0
15292 15295 15038 0
15037 15296 15294 0
15041 15296 15037 0
15038 15297 14806 0
14806 15297 15043 0
15041 15044 15296 0
15043 15297 15047 0
15044 14812 15298 0
14812 15299 15298 0
15046 15300 15045 0
15046 15048 15301 0
15300 15046 15301 0
15048 15049 15301 0
14812 15302 15303 0
14812 15303 15299 0
15302 15304 15305 0
15303 15302 15305 0
15305 15304 15306 0
15045 15300 15052 0
15301 15307 15300 0
15049 14817 15308 0
15049 15308 15301 0
15301 15308 15307 0
14812 15309 15302 0
15309 15304 15302 0
15310 15306 15304 0
15309 15310 15304 0
15052 15300 15055 0
15311 15055 15300 0
15311 15300 15307 0
14817 15312 15308 0
14812 15054 15309 0
15054 15310 15309 0
15056 15055 15313 0
15313 15055 15311 0
15312 14817 15059 0
15059 14817 13573 0
15056 15313 15057 0
15314 15059 15058 0
15066 14333 15050 0
15315 15060 15316 0
15054 15060 15315 0
15061 15057 15317 0
15060 15063 15316 0
15061 15317 15064 0
15317 15318 15064 0
15319 15066 15050 0
15063 14823 15320 0
14823 15068 15320 0
15320 15068 15067 0
15321 15320 15067 0
15064 15318 15069 0
15318 15322 15069 0
15071 15066 15319 0
15077 15321 15072 0
15321 15067 15072 0
15322 15073 15069 0
15323 15073 15322 0
15070 15075 15324 0
15065 15070 15324 0
15076 15071 15325 0
15326 15076 15325 0
15073 15323 14829 0
15323 15327 14829 0
15078 15328 15324 0
15078 15324 15075 0
15083 15079 15076 0
15326 15083 15076 0
14839 15083 15326 0
14839 15326 15329 0
15329 15326 15330 0
15331 15329 15330 0
14829 15327 15332 0
15332 14600 14829 0
15078 14835 15333 0
15328 15078 15333 0
13880 14839 15329 0
15331 13880 15329 0
15085 13880 15331 0
15334 15085 15331 0
14127 15085 15334 0
14127 15334 15335 0
15335 15334 15336 0
15337 15335 15336 0
15337 15338 15339 0
14600 15332 14604 0
15332 15340 14604 0
14835 15341 15333 0
14835 14838 15341 0
15089 14127 15335 0
15337 15089 15335 0
15088 15089 15337 0
15088 15337 15342 0
15342 15337 15339 0
15338 15343 15339 0
15343 15342 15339 0
15338 15344 15343 0
15340 14605 14604 0
15345 14605 15340 0
15341 14838 15087 0
15095 15088 15342 0
15343 15095 15342 0
15343 15098 15095 0
15343 15344 15098 0
15344 15346 15098 0
15080 14837 15347 0
14605 15345 14840 0
15098 15346 15097 0
15346 15348 15097 0
14837 15106 15347 0
15349 14842 14840 0
15091 15092 15350 0
15091 15350 15351 0
15351 15350 15352 0
15350 15092 15353 0
15092 15093 15353 0
15354 15355 15356 0
15357 15358 15359 0
15360 15357 15359 0
15359 15358 15361 0
15361 14847 15099 0
15361 15099 15362 0
15348 15099 15097 0
15362 15099 15348 0
15350 15363 15352 0
15350 15353 15364 0
15365 15364 15353 0
15093 15366 15353 0
15353 15366 15365 0
14850 15355 15367 0
15356 15355 14850 0
15357 14850 15368 0
15104 15358 15368 0
15358 15357 15368 0
14846 15358 15104 0
15361 15358 14846 0
14847 15361 14846 0
15369 15102 15100 0
15370 15364 15365 0
15093 15101 15366 0
15101 15103 15366 0
15371 15355 15372 0
15373 15371 15372 0
14848 15367 15371 0
15367 15355 15371 0
14850 15367 14848 0
15368 14850 14851 0
15104 15368 14851 0
15369 15107 15102 0
15370 15365 15374 0
15365 15366 15374 0
15103 15108 15374 0
15366 15103 15374 0
14854 15371 15373 0
14848 15371 14854 0
15107 15369 15375 0
15109 15107 15376 0
15107 15375 15376 0
14852 15377 15374 0
14852 15374 15108 0
15373 15378 14854 0
14852 15114 15377 0
15378 15379 14854 0
15111 14859 15110 0
14858 14859 15111 0
15109 15380 15381 0
15112 15109 15381 0
15112 15381 15382 0
14854 15379 14853 0
15112 15382 15383 0
14859 13903 15384 0
15112 15383 15113 0
15114 15385 15377 0
15385 15386 15377 0
15114 14860 15385 0
13903 14864 15384 0
15117 15384 14864 0
15387 15384 15117 0
15385 15388 15386 0
14853 15389 15115 0
15117 15118 15387 0
14860 14870 15385 0
15115 15390 15120 0
15389 15390 15115 0
15385 15113 15388 0
15390 15391 15120 0
15391 15121 15120 0
15123 14389 15113 0
15123 15113 15385 0
15121 15391 15122 0
15385 15124 15123 0
14870 15124 15385 0
15392 15122 15391 0
15122 15392 14629 0
15127 15393 15118 0
14871 15127 15118 0
15392 15126 14629 0
15393 15128 15394 0
15127 15128 15393 0
15395 15393 15394 0
15396 15126 15392 0
15397 15396 15392 0
15126 15396 15398 0
15126 15398 14875 0
15399 15400 15401 0
15128 15129 15394 0
15130 15394 15129 0
15395 15394 15130 0
15396 15131 15398 0
15398 15131 14875 0
15400 15402 15401 0
15403 15402 15400 0
15133 15403 15400 0
15130 15132 15395 0
15131 15404 14881 0
15135 15405 15403 0
15403 15405 15402 0
15133 15135 15403 0
15406 15134 15133 0
15134 15407 15408 0
15134 15406 15407 0
15408 15409 15410 0
15407 15409 15408 0
15132 15136 15411 0
15412 15413 15404 0
14881 15404 15414 0
15404 15413 15414 0
15402 15415 15416 0
15415 15402 15417 0
15402 15405 15417 0
15135 15139 15417 0
15405 15135 15417 0
15134 15408 15418 0
15418 15408 15410 0
15419 15418 15410 0
15137 15411 15136 0
15412 15420 15413 0
15413 15420 15414 0
14881 15420 14882 0
15414 15420 14881 0
15417 15421 15415 0
15421 15417 15139 0
15421 15139 15422 0
15134 15418 14885 0
15145 14885 15418 0
15419 15145 15418 0
15145 15419 15423 0
15424 15411 15137 0
15140 15424 15137 0
14882 15420 15141 0
15139 15142 15422 0
15422 15142 15425 0
15145 15423 15146 0
15146 15423 15148 0
15140 15150 15424 0
15148 15423 15426 0
15153 15148 15426 0
15150 15155 15424 0
15157 15425 15142 0
15154 15153 14921 0
15155 14912 15424 0
15424 14912 15427 0
15428 15163 15156 0
15156 15163 14899 0
15157 15429 15425 0
15164 15430 15157 0
15157 15430 15429 0
15430 15164 15172 0
15165 15427 14912 0
15166 14906 15431 0
14906 14903 15431 0
14903 15167 15431 0
15161 15169 15433 0
15169 15170 15433 0
15170 15171 15433 0
15172 15434 15430 0
15172 15435 15434 0
15173 15436 15427 0
15173 15427 15165 0
15173 14913 15166 0
15431 15437 15166 0
15437 15173 15166 0
15171 15175 15433 0
15172 14675 15435 0
14675 15177 15439 0
14675 15439 15435 0
15173 15440 15436 0
15441 15440 15173 0
15437 15441 15173 0
15433 15443 15438 0
15175 15174 15443 0
15433 15175 15443 0
15444 15445 15181 0
15437 15431 15446 0
15167 14923 15446 0
15431 15167 15446 0
15174 15178 15443 0
14193 15448 15180 0
15181 15445 14924 0
15445 15449 14924 0
15178 15450 15443 0
15451 15180 15448 0
15452 15180 15451 0
15184 14678 15186 0
15184 15186 15453 0
15454 14924 15449 0
15446 14923 15455 0
15178 15183 15456 0
15178 15456 15450 0
15183 15180 15456 0
15456 15180 15452 0
15451 15457 15452 0
15186 15458 15453 0
15185 15458 15186 0
15185 15187 15458 0
14924 15454 14681 0
15455 14923 15459 0
15460 15461 15450 0
15456 15462 15450 0
15462 15460 15450 0
15462 15456 15452 0
15457 15462 15452 0
15459 15463 15464 0
14923 15188 15463 0
15459 14923 15463 0
15189 14928 14691 0
15465 15466 15464 0
15467 15466 15465 0
15190 15465 15463 0
15463 15465 15464 0
15188 15190 15463 0
14681 15468 15469 0
15191 14681 15469 0
15191 15469 15470 0
15470 15471 15472 0
15467 15472 15471 0
15467 15465 15472 0
15465 15473 15472 0
15190 15192 15473 0
15465 15190 15473 0
15191 15470 14931 0
15193 14931 15470 0
15472 15193 15470 0
15473 15193 15472 0
15192 15193 15473 0
14937 14695 15194 0
14695 15198 15474 0
14945 15475 15198 0
14946 15475 14945 0
15202 15477 15478 0
15202 15478 15475 0
15202 15475 14946 0
15202 15203 14948 0
15477 15202 14948 0
15478 15477 14949 0
15477 14948 14949 0
15208 15482 15209 0
15209 15482 14951 0
14711 14951 15483 0
15484 15210 15483 0
15483 15210 14711 0
14952 15210 15484 0
15485 14952 15484 0
15485 15211 14952 0
15486 15482 15208 0
14478 14714 15487 0
15488 14959 14478 0
15489 14949 15215 0
14949 14715 15215 0
15490 15214 15213 0
15208 15214 15490 0
14959 15488 15491 0
15216 15489 15215 0
15492 15489 15216 0
15216 15217 15492 0
15216 14967 15217 0
15494 14960 15495 0
15217 14960 15494 0
15496 14964 15497 0
15497 14964 15218 0
15221 15498 15222 0
15498 15221 15224 0
14975 15498 15224 0
14975 15499 15500 0
14975 15225 15499 0
15218 15501 15497 0
15219 15501 15218 0
15220 15502 15219 0
15219 15502 15501 0
15503 15502 15227 0
15502 15220 15227 0
15222 15503 15227 0
15504 15503 15222 0
15228 15230 15234 0
15228 15234 15505 0
15508 15237 15238 0
15508 15236 15237 0
15508 15238 15511 0
15238 15239 15512 0
15511 15238 15512 0
15513 15514 15515 0
15516 15514 15513 0
15511 15515 15514 0
15511 15512 15515 0
15512 15517 15515 0
15512 15239 15517 0
15516 15513 15518 0
15515 15519 15513 0
15519 15520 15513 0
15240 15519 15517 0
15517 15519 15515 0
15239 15240 15517 0
15518 15513 15522 0
15513 15241 15522 0
15242 15241 15520 0
15520 15241 15513 0
15240 15242 15520 0
15519 15240 15520 0
15523 15524 15525 0
15523 15522 15524 0
15522 15241 15524 0
15241 15243 15524 0
15524 15526 15525 0
15526 15524 15243 0
15527 15528 15252 0
15532 15533 15534 0
15532 15535 15536 0
15534 15535 15532 0
15527 15536 15535 0
15252 15536 15527 0
15252 15528 15537 0
15528 15538 15537 0
15243 14996 15246 0
15539 15533 15532 0
15540 15533 15539 0
15252 15539 15536 0
15536 15539 15532 0
15538 15541 15537 0
15541 15538 15542 0
15249 15540 15539 0
15249 15251 15540 0
15251 15543 15540 0
15252 15249 15539 0
15252 15537 15544 0
15541 15544 15537 0
15248 15545 15246 0
15250 15544 15546 0
15250 15546 15543 0
15250 15543 15251 0
15547 15543 15546 0
15250 15252 15544 0
15004 15253 15548 0
15004 15549 15005 0
15548 15549 15004 0
15550 15005 15549 0
15550 15551 15005 0
15005 15551 15248 0
15552 15547 15546 0
15553 15547 15552 0
15544 15552 15546 0
15554 15555 15541 0
15555 15544 15541 0
15253 15254 15548 0
15006 15556 15007 0
15557 15558 15553 0
15553 15552 15557 0
15544 15555 15552 0
15555 15557 15552 0
15549 15548 15559 0
15560 15550 15549 0
15559 15560 15549 0
15561 15558 15557 0
15562 15558 15561 0
15555 15561 15557 0
15548 15254 15563 0
15564 15559 15563 0
15563 15559 15548 0
15560 15559 15564 0
15565 15007 15556 0
15254 15255 15563 0
15566 15564 15563 0
15255 15566 15563 0
15565 15567 15256 0
15007 15565 15256 0
15568 15569 15565 0
15569 15567 15565 0
15569 15568 15570 0
15566 15255 15016 0
15571 15016 15258 0
15259 15572 15014 0
15573 15572 15259 0
15571 15014 15572 0
15571 15263 15014 0
15571 15258 15263 0
15259 15262 15574 0
15259 15574 15573 0
15574 15575 15573 0
15571 15572 15575 0
15575 15572 15573 0
15262 15576 15577 0
15262 15577 15574 0
15575 15574 15577 0
15578 15575 15577 0
15571 15575 15578 0
15266 15579 15262 0
15580 15579 15266 0
15262 15579 15576 0
15267 15581 15269 0
15582 15581 15267 0
15269 15580 15266 0
15269 15581 15580 0
15581 15583 15580 0
15583 15579 15580 0
15264 15584 15024 0
15582 15267 15272 0
15582 15272 15585 0
15583 15581 15582 0
15586 15583 15582 0
15024 15584 15275 0
15274 15273 15587 0
15273 15588 15587 0
15585 15272 15274 0
15587 15585 15274 0
15589 15273 15276 0
15279 15590 15031 0
15031 15590 15278 0
15591 15592 15593 0
15593 15592 15279 0
15592 15594 15279 0
15594 15590 15279 0
15277 15275 15280 0
15591 15593 15595 0
15279 15281 15593 0
15280 15596 15282 0
15595 15597 15598 0
15597 15599 15598 0
15281 15597 15593 0
15593 15597 15595 0
15600 15601 15602 0
15600 15599 15601 0
15603 15601 15599 0
15597 15603 15599 0
15281 15283 15603 0
15597 15281 15603 0
15604 15605 15596 0
15282 15605 15284 0
15596 15605 15282 0
15289 15602 15601 0
15603 15606 15601 0
15606 15289 15601 0
15283 15606 15603 0
15607 15605 15604 0
15284 15608 15285 0
15284 15605 15608 0
15605 15607 15608 0
15285 15609 15288 0
15608 15609 15285 0
15289 15610 15602 0
15289 15288 15610 0
15609 15610 15288 0
15287 15286 15289 0
15606 15287 15289 0
15283 15287 15606 0
15607 15604 15611 0
15608 15607 15611 0
15609 15608 15611 0
15293 15612 15613 0
15292 15293 15613 0
15291 15614 15293 0
15614 15612 15293 0
15290 15614 15291 0
15615 15614 15290 0
15290 15294 15615 0
15294 15616 15615 0
15295 15292 15617 0
15292 15613 15617 0
15294 15296 15616 0
15038 15295 15297 0
15303 15618 15299 0
15047 15297 15050 0
15618 15303 15619 0
15303 15305 15619 0
15619 15305 15306 0
15620 15619 15306 0
15620 15306 15310 0
15307 15621 15311 0
15307 15308 15312 0
15621 15307 15312 0
15310 15054 15620 0
15311 15621 15313 0
15621 15317 15057 0
15313 15621 15057 0
15622 15317 15621 0
15312 15622 15621 0
15054 15315 15620 0
15620 15315 15623 0
15623 15315 15624 0
15059 15314 15625 0
15059 15625 15312 0
15312 15625 15622 0
15624 15315 15316 0
15624 15316 15626 0
15627 15317 15622 0
15625 15314 15628 0
15628 15314 15058 0
15297 15629 15050 0
15063 15626 15316 0
15318 15317 15630 0
15630 15317 15627 0
15631 15628 15058 0
15632 15319 15629 0
15629 15319 15050 0
15633 15634 15635 0
15320 15321 15063 0
15318 15630 15322 0
15322 15630 15636 0
15058 15637 15631 0
15637 15058 15062 0
15637 15062 15638 0
15638 15062 15065 0
15319 15632 15071 0
15325 15071 15632 0
15633 15325 15632 0
15326 15325 15633 0
15326 15633 15639 0
15640 15639 15633 0
15635 15640 15633 0
15321 15077 15063 0
15063 15077 15081 0
15063 15081 15641 0
15322 15636 15323 0
15636 15642 15323 0
15065 15324 15638 0
15638 15324 15643 0
15330 15326 15639 0
15640 15330 15639 0
15331 15330 15640 0
15331 15640 15644 0
15644 15640 15635 0
15645 15644 15635 0
15642 15332 15327 0
15642 15327 15323 0
15642 15646 15332 0
15334 15331 15644 0
15645 15334 15644 0
15336 15334 15645 0
15337 15336 15645 0
15337 15645 15647 0
15647 15645 15635 0
15338 15647 15635 0
15081 15080 15641 0
15324 15328 15648 0
15648 15328 15333 0
15338 15337 15647 0
15649 15338 15650 0
15651 15650 15652 0
15649 15650 15651 0
15332 15646 15340 0
15341 15648 15333 0
15649 15344 15338 0
15649 15651 15344 0
15651 15653 15344 0
15654 15341 15087 0
15655 15656 15657 0
15657 15346 15653 0
15346 15344 15653 0
15080 15347 15641 0
15345 15658 14840 0
15087 15659 15654 0
15087 15090 15659 0
15090 15660 15659 0
15351 15660 15091 0
15091 15660 15090 0
15655 15661 15662 0
15655 15662 15656 0
15657 15656 15663 0
15663 15656 15662 0
15346 15663 15348 0
15657 15663 15346 0
14840 15658 15349 0
15664 14842 15349 0
15665 15357 15360 0
15665 15360 15661 0
15661 15359 15662 0
15661 15360 15359 0
15361 15662 15359 0
15362 15662 15361 0
15663 15662 15362 0
15348 15663 15362 0
14842 15664 15100 0
15356 14850 15665 0
15357 15665 14850 0
15364 15666 15350 0
15666 15364 15370 0
15369 15100 15667 0
15369 15667 15668 0
15370 15669 15666 0
15372 15378 15373 0
15369 15668 15375 0
15376 15375 15668 0
15376 15670 15109 0
15670 15671 15109 0
15370 15672 15669 0
15374 15672 15370 0
15374 15377 15672 0
14855 15673 15106 0
15381 15380 15671 0
15671 15380 15109 0
15672 15674 15669 0
14855 15675 15673 0
15110 15675 14855 0
14859 15675 15110 0
15676 15382 15381 0
15382 15676 15383 0
15674 15383 15676 0
15677 15383 15674 0
15672 15677 15674 0
15672 15377 15677 0
15377 15386 15677 0
15388 15113 15383 0
15677 15388 15383 0
15386 15388 15677 0
15390 15678 15391 0
15679 15392 15678 0
15678 15392 15391 0
15680 15399 15681 0
15399 15682 15681 0
15683 15399 15680 0
15393 15395 15118 0
15395 15684 15118 0
15682 15399 15685 0
15399 15401 15685 0
15683 15400 15399 0
15686 15400 15683 0
15133 15400 15686 0
15133 15686 15687 0
15687 15686 15688 0
15406 15687 15688 0
15395 15411 15684 0
15396 15397 15131 0
15685 15401 15402 0
15406 15133 15687 0
15406 15689 15407 0
15689 15690 15407 0
15395 15132 15411 0
15404 15397 15691 0
15404 15131 15397 0
15407 15690 15409 0
15410 15409 15692 0
15409 15690 15692 0
15691 15412 15404 0
15416 15693 15694 0
15415 15693 15416 0
15410 15692 15419 0
15419 15692 15695 0
15421 15696 15415 0
15423 15419 15695 0
15424 15697 15411 0
15420 15412 15141 0
15421 15698 15696 0
15421 15422 15425 0
15421 15425 15699 0
15421 15699 15698 0
15423 15695 15700 0
15423 15700 15426 0
15426 15700 15153 0
15153 15700 15701 0
15153 15701 14921 0
15697 15424 15427 0
15156 15151 15702 0
15702 15428 15156 0
15163 15428 15703 0
15703 15428 15702 0
15430 15434 15704 0
15435 15704 15434 0
15705 15704 15435 0
15435 15439 15705 0
15427 15436 15697 0
15697 15436 15706 0
15163 15703 15707 0
15707 15708 15163 0
15436 15709 15706 0
15440 15709 15436 0
15441 15709 15440 0
15163 15708 14193 0
15708 15710 14193 0
15441 15711 15709 0
15437 15711 15441 0
14193 15710 15448 0
15184 15714 15715 0
15716 15449 15445 0
15716 15717 15449 0
15438 15443 15720 0
15443 15450 15720 0
15714 15453 15721 0
15184 15453 15714 0
15722 15715 15714 0
15722 15714 15723 0
15723 15714 15721 0
15449 15717 15454 0
15720 15450 15461 0
15457 15451 15725 0
15453 15458 15721 0
15187 15721 15458 0
15723 15721 15187 0
15187 15189 15723 0
15455 15459 15726 0
15461 15460 15727 0
15728 15457 15725 0
15729 15457 15728 0
15464 15466 15726 0
15459 15464 15726 0
15731 15727 15732 0
15460 15733 15727 0
15727 15733 15732 0
15460 15462 15734 0
15733 15460 15734 0
15462 15457 15734 0
15734 15457 15729 0
15466 15467 15726 0
15726 15467 15735 0
15731 15732 15736 0
15732 15733 15736 0
15734 15737 15733 0
15737 15736 15733 0
15738 15737 15729 0
15737 15734 15729 0
15471 15470 15739 0
15470 15469 15739 0
15735 15467 15471 0
15739 15735 15471 0
15737 15740 15736 0
15740 15741 15736 0
15742 15737 15738 0
15740 15737 15742 0
14695 15474 15194 0
15743 15198 15475 0
15478 15743 15475 0
15745 15743 15478 0
15746 15745 15478 0
15478 14949 15746 0
15484 15747 15485 0
15483 14951 15750 0
15747 15484 15483 0
15750 15747 15483 0
15751 15752 15490 0
15753 15752 15751 0
15490 15752 15208 0
15752 15754 15208 0
15754 15486 15208 0
15482 15486 15754 0
14713 15487 14714 0
14478 15487 15488 0
15755 15756 15757 0
15758 15756 15755 0
15753 15757 15756 0
15753 15751 15757 0
15751 15490 15757 0
14960 14959 15495 0
14959 15491 15495 0
15489 15492 15494 0
15758 15762 15763 0
15758 15755 15762 0
15757 15764 15755 0
15764 15762 15755 0
14964 15764 15490 0
15490 15764 15757 0
15213 14964 15490 0
15765 15494 15495 0
15492 15217 15494 0
15496 15764 14964 0
15767 15498 14975 0
15767 14975 15500 0
15767 15500 15768 0
15497 15769 15496 0
15770 15503 15771 0
15771 15503 15504 0
15225 15772 15499 0
15497 15501 15769 0
15502 15769 15501 0
15770 15769 15502 0
15503 15770 15502 0
15225 15773 15772 0
15226 15773 15225 0
15774 15228 15505 0
15505 15234 15775 0
15234 15776 15775 0
15233 15776 15234 0
15235 15777 15233 0
15233 15777 15776 0
15777 15235 15236 0
15778 15777 15236 0
15236 15508 15778 0
15779 15780 15781 0
15508 15511 15778 0
15778 15511 15782 0
15781 15783 15784 0
15785 15783 15781 0
15780 15785 15781 0
15786 15780 15787 0
15785 15780 15786 0
15784 15788 15789 0
15788 15790 15789 0
15788 15784 15783 0
15791 15783 15785 0
15786 15791 15785 0
15514 15516 15792 0
15516 15793 15792 0
15782 15511 15514 0
15792 15782 15514 0
15794 15795 15518 0
15795 15796 15518 0
15793 15516 15518 0
15796 15793 15518 0
15522 15523 15794 0
15523 15797 15794 0
15518 15522 15794 0
15797 15523 15525 0
15798 15797 15525 0
15800 15801 15790 0
15526 15798 15525 0
15800 15527 15805 0
15790 15788 15800 0
15788 15527 15800 0
15526 15243 15806 0
15527 15807 15805 0
15528 15527 15788 0
15808 15528 15788 0
15806 15243 15809 0
15534 15810 15811 0
15533 15810 15534 0
15807 15535 15811 0
15811 15535 15534 0
15527 15535 15807 0
15808 15538 15528 0
15538 15808 15812 0
15788 15813 15808 0
15813 15812 15808 0
15243 15246 15809 0
15533 15540 15810 0
15538 15812 15542 0
15813 15816 15812 0
15816 15542 15812 0
15540 15543 15810 0
15809 15246 15545 0
15817 15006 15818 0
15819 15006 15817 0
15541 15542 15554 0
15816 15820 15542 0
15551 15545 15248 0
15006 15819 15556 0
15817 15821 15819 0
15547 15553 15822 0
15542 15823 15554 0
15824 15823 15820 0
15823 15542 15820 0
15551 15550 15825 0
15553 15558 15826 0
15553 15826 15822 0
15823 15827 15554 0
15828 15823 15824 0
15827 15823 15828 0
15550 15560 15825 0
15819 15829 15556 0
15821 15830 15819 0
15830 15829 15819 0
15831 15826 15558 0
15562 15831 15558 0
15556 15829 15565 0
15568 15565 15829 0
15830 15568 15829 0
15568 15830 15832 0
15832 15830 15821 0
15833 15834 15821 0
15834 15832 15821 0
15834 15833 15835 0
15836 15562 15561 0
15836 15837 15562 0
15561 15555 15554 0
15561 15554 15836 0
15568 15832 15570 0
15834 15570 15832 0
15838 15834 15835 0
15837 15839 15840 0
15837 15836 15839 0
15554 15839 15836 0
15567 15569 15842 0
15841 15567 15842 0
15569 15570 15842 0
15842 15570 15834 0
15838 15843 15834 0
15844 15840 15839 0
15845 15840 15844 0
15846 15844 15839 0
15554 15846 15839 0
15827 15847 15554 0
15847 15846 15554 0
15842 15848 15841 0
15848 15842 15834 0
15843 15848 15834 0
15845 15844 15849 0
15850 15016 15571 0
15841 15851 15264 0
15848 15852 15841 0
15852 15851 15841 0
15849 15844 15853 0
15854 15853 15844 0
15846 15855 15844 0
15855 15854 15844 0
15856 15855 15846 0
15855 15857 15854 0
15858 15857 15855 0
15856 15858 15855 0
15859 15860 15571 0
15851 15861 15264 0
15862 15849 15853 0
15863 15849 15862 0
15862 15853 15854 0
15857 15862 15854 0
15859 15578 15577 0
15859 15571 15578 0
15863 15862 15864 0
15576 15865 15577 0
15859 15577 15865 0
15861 15584 15264 0
15866 15867 15864 0
15868 15867 15866 0
15579 15583 15869 0
15576 15579 15869 0
15868 15866 15870 0
15585 15871 15582 0
15872 15871 15585 0
15583 15586 15869 0
15873 15874 15870 0
15875 15874 15873 0
15866 15876 15870 0
15876 15873 15870 0
15876 15866 15877 0
15872 15585 15587 0
15875 15873 15878 0
15876 15878 15873 0
15589 15588 15273 0
15879 15880 15881 0
15879 15878 15880 0
15027 15275 15277 0
15882 15881 15880 0
15883 15881 15882 0
15878 15884 15880 0
15884 15882 15880 0
15876 15885 15878 0
15885 15884 15878 0
15886 15885 15876 0
15885 15886 15590 0
15278 15590 15887 0
15590 15886 15887 0
15276 15278 15887 0
15887 15589 15276 0
15888 15889 15883 0
15883 15882 15888 0
15882 15890 15888 0
15891 15890 15882 0
15591 15891 15884 0
15884 15891 15882 0
15592 15591 15884 0
15885 15592 15884 0
15594 15592 15885 0
15590 15594 15885 0
15892 15889 15888 0
15893 15889 15892 0
15598 15892 15890 0
15890 15892 15888 0
15595 15598 15890 0
15891 15595 15890 0
15591 15595 15891 0
15280 15275 15596 0
15599 15893 15892 0
15599 15600 15893 0
15600 15894 15893 0
15598 15599 15892 0
15602 15895 15894 0
15894 15600 15602 0
15602 15610 15895 0
15612 15896 15613 0
15612 15614 15897 0
15896 15612 15897 0
15897 15614 15615 0
15896 15898 15617 0
15613 15896 15617 0
15898 15896 15897 0
15899 15615 15616 0
15616 15296 15899 0
15296 15900 15899 0
15617 15898 15295 0
15897 15295 15898 0
15296 15901 15900 0
15044 15901 15296 0
15044 15298 15901 0
15902 15298 15299 0
15295 15903 15297 0
15620 15904 15619 0
15905 15906 15907 0
15906 15908 15909 0
15905 15908 15906 0
15622 15910 15627 0
15910 15622 15911 0
15622 15625 15911 0
15625 15628 15911 0
15903 15632 15629 0
15297 15903 15629 0
15912 15632 15903 0
15907 15632 15912 0
15634 15632 15907 0
15906 15634 15907 0
15909 15634 15906 0
15913 15914 15909 0
15915 15913 15916 0
15914 15913 15915 0
15627 15910 15630 0
15911 15917 15910 0
15628 15631 15917 0
15911 15628 15917 0
15634 15633 15632 0
15914 15634 15909 0
15915 15918 15914 0
15915 15919 15918 0
15920 15063 15641 0
15630 15910 15636 0
15631 15637 15917 0
15635 15634 15921 0
15921 15634 15914 0
15918 15922 15914 0
15922 15921 15914 0
15923 15918 15919 0
15922 15918 15923 0
15910 15924 15642 0
15636 15910 15642 0
15917 15925 15910 0
15925 15924 15910 0
15637 15926 15917 0
15926 15925 15917 0
15638 15643 15926 0
15637 15638 15926 0
15923 15927 15922 0
15927 15921 15922 0
15923 15928 15927 0
15646 15642 15924 0
15646 15924 15929 0
15929 15924 15925 0
15926 15643 15930 0
15930 15643 15324 0
15635 15921 15338 0
15650 15338 15921 0
15927 15650 15921 0
15927 15652 15650 0
15927 15928 15652 0
15928 15931 15652 0
15929 15932 15646 0
15933 15930 15324 0
15324 15648 15933 0
15934 15651 15931 0
15651 15652 15931 0
15646 15932 15340 0
15933 15648 15341 0
15934 15655 15935 0
15651 15935 15653 0
15934 15935 15651 0
15932 15345 15340 0
15935 15655 15657 0
15653 15935 15657 0
15345 15932 15658 0
15654 15659 15936 0
15654 15936 15937 0
15659 15660 15938 0
15936 15659 15938 0
15660 15351 15938 0
15355 15939 15940 0
15355 15940 15372 0
15372 15940 15378 0
15354 15939 15355 0
15356 15941 15942 0
15943 15941 15944 0
15661 15945 15944 0
15945 15943 15944 0
15655 15945 15661 0
15349 15658 15946 0
15664 15947 15948 0
15664 15349 15947 0
15349 15946 15947 0
15948 15949 15950 0
15947 15949 15948 0
15937 15950 15949 0
15936 15950 15937 0
15938 15951 15936 0
15351 15352 15951 0
15938 15351 15951 0
15356 15665 15941 0
15661 15941 15665 0
15944 15941 15661 0
15948 15952 15100 0
15664 15948 15100 0
15950 15952 15948 0
15352 15363 15951 0
15100 15952 15953 0
15953 15952 15950 0
15954 15953 15950 0
15936 15954 15950 0
15951 15955 15936 0
15955 15954 15936 0
15363 15955 15951 0
15363 15350 15956 0
15350 15666 15956 0
15100 15953 15667 0
15668 15667 15953 0
15954 15668 15953 0
15376 15668 15954 0
15670 15376 15954 0
15670 15954 15955 0
15955 15957 15671 0
15670 15955 15671 0
15363 15957 15955 0
15956 15958 15363 0
15958 15957 15363 0
15666 15669 15958 0
15956 15666 15958 0
15673 15959 15960 0
15671 15957 15381 0
15676 15381 15957 0
15674 15676 15957 0
15958 15674 15957 0
15669 15674 15958 0
15673 15675 15959 0
14859 15959 15675 0
15961 15959 14859 0
14859 15384 15961 0
15387 15962 15384 0
15387 15118 15962 0
14853 15379 15389 0
15389 15379 15390 0
15390 15379 15678 0
15963 15964 15965 0
15965 15964 15966 0
15964 15967 15966 0
15966 15968 15965 0
15969 15968 15966 0
15969 15970 15971 0
15971 15972 15973 0
15970 15972 15971 0
15678 15974 15679 0
15975 15976 15965 0
15681 15975 15968 0
15968 15975 15965 0
15680 15681 15968 0
15969 15680 15968 0
15971 15680 15969 0
15683 15680 15971 0
15683 15971 15977 0
15977 15971 15973 0
15978 15977 15973 0
15978 15979 15980 0
15980 15981 15982 0
15979 15981 15980 0
15392 15679 15974 0
15976 15975 15983 0
15681 15682 15983 0
