#!ascii version written be Caret
18434 36864
5363 5686 5372 0
5374 5117 5687 0
5684 5683 5688 0
5377 5685 5371 0
5378 5686 5689 0
5378 4867 5686 0
5373 5690 5380 0
5691 5690 5373 0
5687 5117 5387 0
5683 5681 5692 0
5693 5688 5692 0
5692 5688 5683 0
5377 5382 5694 0
5689 5383 5378 0
5354 5384 5677 0
5385 5380 5695 0
5380 5690 5695 0
5696 5687 5387 0
5387 5388 5696 0
5697 5680 5679 0
5382 5389 5698 0
5382 5698 5694 0
5699 5384 5375 0
5699 5700 5384 0
5700 5677 5384 0
5375 5385 5699 0
5122 5696 5388 0
5701 5680 5697 0
5681 5680 5701 0
5692 5681 5702 0
5702 5681 5701 0
5703 5693 5692 0
5702 5703 5692 0
5694 5698 5704 0
5705 5385 5695 0
5122 5706 5696 0
5389 5397 5698 0
5397 5704 5698 0
5122 5707 5706 0
5707 5122 5124 0
5707 5124 5393 0
5702 5701 5708 0
5391 5709 5395 0
5397 5396 5710 0
5383 5711 4873 0
5711 5712 4873 0
5398 5707 5393 0
5395 5713 5399 0
5709 5713 5395 0
5396 5400 5714 0
5396 5714 5710 0
5714 5715 5710 0
5716 5700 5699 0
5717 5700 5716 0
5385 5716 5699 0
5718 5385 5705 0
5398 5719 5707 0
5719 5398 5401 0
5720 5713 5709 0
5721 5720 5709 0
5714 5402 5722 0
5400 5402 5714 0
5722 5715 5714 0
5712 5404 4873 0
5723 5404 5712 0
5385 5718 5716 0
5724 5719 5401 0
5401 5405 5724 0
5713 5720 5406 0
5399 5713 5406 0
5403 5725 5402 0
5726 5725 5403 0
5402 5725 5722 0
5404 5723 5409 0
5723 5727 5409 0
5724 5405 5728 0
5720 5729 5406 0
5407 5730 5408 0
5406 5730 5407 0
5408 5726 5403 0
5408 5730 5726 0
5730 5731 5726 0
5731 5725 5726 0
5732 5409 5727 0
5716 5733 5717 0
5406 5729 5734 0
5731 5406 5734 0
5730 5406 5731 0
5732 5410 5409 0
5735 5410 5732 0
5731 5734 5736 0
5411 5410 5737 0
5410 5735 5737 0
5415 5738 5739 0
5415 5414 5738 0
5414 5416 5738 0
5417 5415 5739 0
5740 5417 5739 0
5417 5740 5741 0
5728 5742 5420 0
5405 5412 5742 0
5728 5405 5742 0
5417 5741 5419 0
5420 5419 5741 0
5742 5421 5420 0
5412 5421 5742 0
5424 5144 5139 0
5416 5743 5744 0
5416 5425 5743 0
5425 5426 5743 0
5428 5745 5746 0
5428 5746 5426 0
5426 5746 5743 0
5747 5423 5748 0
5748 5423 5432 0
5424 5748 5432 0
5745 5428 5749 0
5433 5750 5428 0
5428 5750 5749 0
5751 5431 5435 0
5422 5751 5435 0
5436 5750 5433 0
5752 5750 5436 0
4893 5753 4894 0
4894 5753 5157 0
5754 4893 5431 0
5755 5752 5437 0
5752 5436 5437 0
5753 5160 5157 0
5756 5160 5753 0
5755 5437 5757 0
5758 5755 5757 0
5758 5759 5760 0
5438 5761 5762 0
5762 5763 5439 0
5762 5439 5438 0
5441 5439 5763 0
5764 5441 5763 0
5764 5446 5441 0
5764 5765 5446 0
5765 5766 5446 0
5437 5442 5757 0
5758 5757 5767 0
5443 5768 5444 0
5761 5438 5444 0
5768 5761 5444 0
5766 5445 5446 0
5442 5447 5757 0
5450 5757 5447 0
5767 5757 5450 0
5450 5769 5767 0
5769 5758 5767 0
5759 5758 5770 0
5770 5758 5769 0
5771 5760 5759 0
5770 5771 5759 0
5160 5772 5167 0
5443 5773 5768 0
5448 5445 5774 0
5450 5175 5769 0
5176 5769 5175 0
5770 5769 5176 0
5453 5775 5776 0
5176 5453 5776 0
5176 5776 5771 0
5176 5771 5770 0
5772 5777 5167 0
5443 5171 5778 0
5778 5171 5452 0
5773 5443 5778 0
5775 5454 5779 0
5453 5454 5775 0
5780 5776 5775 0
5780 5775 5781 0
5781 5775 5779 0
5780 5781 5782 0
5783 4921 5448 0
5454 5455 5779 0
5456 5779 5455 0
5781 5779 5456 0
5182 5781 5456 0
5782 5781 5182 0
5182 5784 5782 0
5777 5170 5167 0
5777 5785 5170 0
5785 5180 5170 0
5182 5457 5784 0
5458 5784 5457 0
5786 5784 5458 0
5458 5463 5786 0
5180 5785 5459 0
5458 5460 5463 0
5462 4921 5783 0
5460 5187 5463 0
5787 5189 5185 0
5451 4194 5788 0
5462 5789 5193 0
5463 5190 5191 0
5189 5787 4715 0
5790 5789 5791 0
5788 4194 5792 0
5466 5193 5789 0
5466 5789 5790 0
5466 5790 5793 0
5466 5793 5467 0
5793 5794 5467 0
5463 5191 4939 0
4199 4716 5469 0
5794 5468 5467 0
5470 5468 5795 0
4940 5796 5197 0
5797 5197 5796 0
5797 5471 5197 0
5472 5471 5797 0
5470 5798 4214 0
4214 5798 5198 0
5799 5800 5477 0
5475 5801 5476 0
5479 5477 5478 0
5479 5802 5477 0
5802 5799 5477 0
5803 5799 5802 0
4950 5803 5802 0
5804 5805 5806 0
4731 5807 5806 0
5807 5804 5806 0
5198 5807 4731 0
5808 5809 5810 0
5811 5810 5809 0
5811 5809 5812 0
5476 5801 5812 0
5801 5811 5812 0
5479 5481 5802 0
5482 5802 5481 0
4950 5802 5482 0
4945 5805 4950 0
5806 5805 4945 0
4731 5806 4945 0
5808 5813 5814 0
5485 5809 5814 0
5809 5808 5814 0
5483 5809 5485 0
5812 5809 5483 0
5476 5812 5483 0
5485 5814 5486 0
5815 5816 5817 0
5814 5817 5818 0
5486 5818 5487 0
5814 5818 5486 0
5817 5816 5819 0
5489 5818 5819 0
5818 5817 5819 0
5487 5818 5489 0
5489 5819 5491 0
5491 5819 5820 0
4939 5492 5821 0
5822 5816 5823 0
5492 5493 5821 0
5494 5821 5493 0
5824 5816 5822 0
5825 5824 5822 0
5819 5816 5820 0
5820 5816 5824 0
5826 5827 5828 0
5827 5829 5828 0
5820 5830 5491 0
5831 5499 5500 0
5499 5832 5501 0
5501 5832 5497 0
5491 5833 5219 0
5830 5833 5491 0
5828 5508 5826 0
5829 5834 5828 0
5834 5508 5828 0
5835 5834 5829 0
5831 5500 5507 0
5831 5507 5506 0
5836 5499 5831 0
5832 5499 5836 0
5513 5833 5837 0
5513 5219 5833 0
5838 5839 5826 0
5508 5840 5826 0
5840 5838 5826 0
5508 5510 5840 0
5834 5509 5508 0
5525 5509 5834 0
5841 5834 5835 0
5506 5505 5504 0
5842 5506 5504 0
5513 5843 5514 0
5837 5843 5513 0
5838 5840 5520 0
5840 5510 5520 0
5525 5834 5844 0
5844 5834 5841 0
4978 5845 5225 0
5846 5845 4978 0
5847 5518 5225 0
5213 5518 5848 0
5848 5518 5847 0
5843 5849 5514 0
5849 5220 5514 0
5844 5850 5525 0
4978 5522 5851 0
4978 5851 5846 0
5852 5846 5851 0
5852 5845 5846 0
5217 5220 5853 0
5853 5220 5849 0
5851 5522 5854 0
5852 5851 5855 0
5853 5226 5217 0
5853 5856 5226 0
5856 5527 5226 0
5857 5858 5524 0
5858 5519 5524 0
5522 5534 5854 0
5854 5534 5859 0
5860 5527 5856 0
5861 5858 5857 0
5862 5858 5861 0
5524 5528 5863 0
5524 5863 5857 0
5857 5863 5861 0
5528 5535 5863 0
5533 5864 5534 0
5534 5864 5859 0
5860 5538 5527 0
5862 5865 5866 0
5862 5861 5865 0
5861 5863 5865 0
5535 5539 5865 0
5863 5535 5865 0
5537 5867 5541 0
5533 5543 5868 0
5864 5533 5868 0
5539 5866 5865 0
5869 5866 5539 0
5539 5550 5869 0
5870 5546 5547 0
5546 5871 5548 0
5548 5871 5543 0
5549 5544 5872 0
5872 5252 5549 0
5555 5873 5874 0
5255 5873 5555 0
5552 5555 5874 0
5870 5547 5557 0
5870 5557 5556 0
5875 5546 5870 0
5871 5546 5875 0
5872 5558 5252 0
5872 5560 5558 0
5559 5257 5876 0
5559 5876 5877 0
5877 5261 5559 0
5255 4293 5873 0
5251 5552 5878 0
5556 5251 5878 0
5879 5556 5878 0
5558 5560 5259 0
5011 5560 5012 0
5880 4995 5012 0
5559 5261 5561 0
4564 5261 4786 0
5881 5262 4313 0
4313 4577 5881 0
5563 5882 5562 0
5882 5563 5883 0
4579 5263 5564 0
5262 5884 5263 0
5881 5884 5262 0
5885 5883 5563 0
5565 5885 5563 0
5886 5567 5566 0
5564 5887 5566 0
5887 5886 5566 0
5565 5568 5888 0
5567 5889 5569 0
5886 5889 5567 0
5890 5023 5570 0
5266 5023 5891 0
5023 5890 5891 0
5571 5266 5892 0
5266 5891 5892 0
5888 5568 5571 0
5892 5888 5571 0
5030 5572 5031 0
5570 5026 5267 0
5893 5570 5267 0
5574 5894 5575 0
5574 5576 5894 0
5895 5033 5034 0
5034 5578 5895 0
5580 5896 5897 0
5579 5896 5580 0
5580 5897 5581 0
5575 5589 5272 0
5575 5894 5589 0
5576 5898 5894 0
5577 5898 5576 0
5577 5583 5898 0
5583 5899 5898 0
5899 5583 5584 0
5900 5899 5584 0
5585 5586 5901 0
5033 5586 3430 0
5895 5586 5033 0
5274 5587 5902 0
5274 5902 5903 0
5274 5903 5579 0
5579 5903 5896 0
5904 5588 5582 0
5905 5582 5589 0
5906 5900 5590 0
5900 5584 5590 0
5906 5590 5907 0
5908 5592 5591 0
5901 5591 5585 0
5908 5591 5901 0
4814 5909 5593 0
5593 5909 5910 0
5594 5909 4814 0
5904 5594 5588 0
5904 5909 5594 0
5911 5904 5582 0
5905 5911 5582 0
5595 5907 5590 0
5592 5912 4601 0
5908 5912 5592 0
5587 5596 5902 0
5597 5913 5914 0
5599 5907 5595 0
5912 5915 4601 0
5596 5600 5916 0
5602 5289 5917 0
5914 5289 5597 0
5282 5918 5283 0
5283 5919 5598 0
5918 5919 5283 0
5599 5598 5919 0
5600 5920 5916 0
5600 5601 5920 0
5917 5603 5602 0
5921 5603 5917 0
5281 5922 5045 0
5045 5922 5282 0
5922 5923 5282 0
5923 5918 5282 0
5915 4615 4601 0
5601 5607 5924 0
5601 5924 5920 0
5612 5611 5925 0
5925 5613 5612 0
5926 5614 5613 0
5606 5293 5614 0
5606 5614 5926 0
5927 5922 5281 0
5923 5922 5927 0
5607 5615 5928 0
5929 5924 5607 0
5928 5929 5607 0
5930 5616 5921 0
5616 5603 5921 0
5931 5932 5933 0
5931 5934 5935 0
5933 5934 5931 0
5925 5618 5934 0
5925 5611 5618 0
5618 5935 5934 0
5936 4615 5915 0
5615 5621 5928 0
5937 5929 5928 0
5616 5930 5068 0
5618 5617 5938 0
5618 5938 5935 0
5617 5619 5938 0
5619 5298 5939 0
5938 5619 5939 0
5298 5303 5939 0
5624 4615 5936 0
5621 5626 5928 0
5937 5928 5626 0
5068 5930 5629 0
5940 5932 5931 0
5941 5932 5940 0
5935 5940 5931 0
5938 5940 5935 0
5939 5940 5938 0
5942 5940 5939 0
5303 5623 5942 0
5303 5942 5939 0
5942 5623 5622 0
5627 5943 5626 0
5943 5937 5626 0
5944 5937 5943 0
5930 5944 5632 0
5632 5944 5943 0
5930 5632 5629 0
5940 5945 5941 0
5946 5945 5940 0
5947 5946 5940 0
5942 5947 5940 0
5622 5305 5948 0
5627 5628 5943 0
5305 5311 5948 0
5948 5311 5949 0
5628 5630 5943 0
5629 5632 5631 0
5320 5950 5630 0
5943 5630 5951 0
5632 5943 5951 0
5952 5632 5951 0
5632 5953 5633 0
5632 5952 5953 0
5633 5954 5634 0
5953 5954 5633 0
5634 5954 5635 0
5320 5646 5950 0
5630 5950 5646 0
5955 5951 5646 0
5646 5951 5630 0
5952 5951 5955 0
5952 5956 5953 0
5954 5953 5957 0
5957 5953 5956 0
5954 5957 5635 0
5635 5958 5321 0
5321 5958 5641 0
5959 5955 5646 0
5957 5960 5635 0
5958 5635 5960 0
5641 5958 5961 0
5958 5960 5961 0
5641 5962 5640 0
5961 5962 5641 0
5640 5962 5644 0
5643 5657 5639 0
5643 5639 5637 0
5647 5959 5646 0
5961 5963 5962 0
5644 5963 5653 0
5962 5963 5644 0
5333 5649 5964 0
5650 5965 5966 0
5084 5965 5650 0
5327 5965 5084 0
5647 5652 5967 0
5967 5959 5647 0
5963 5968 5653 0
5657 5656 5969 0
5333 5970 5334 0
5334 5970 5337 0
5650 5964 5649 0
5971 5964 5650 0
5652 5658 5967 0
5655 5660 5972 0
5655 5972 5656 0
5656 5972 5969 0
5343 5970 5665 0
5970 5343 5337 0
5658 5661 5973 0
5660 5664 5972 0
5664 5974 5972 0
5664 5351 5975 0
5974 5664 5975 0
5666 5976 5669 0
5976 5666 5977 0
5666 5667 5977 0
5667 5670 5977 0
5653 5978 5356 0
5968 5978 5653 0
5351 5675 5975 0
5675 5979 5975 0
5352 5346 5980 0
5981 5973 5982 0
5983 5984 5981 0
5982 5983 5981 0
5976 5691 5669 0
5977 5691 5976 0
5670 5374 5977 0
5356 5978 5678 0
5675 5674 5985 0
5980 5676 5352 0
5986 5676 5980 0
5973 5677 5987 0
5661 5677 5973 0
5983 5982 5987 0
5987 5982 5973 0
5669 5691 5366 0
5678 5978 5679 0
5673 5988 5674 0
5674 5988 5985 0
5370 5676 5989 0
5676 5986 5989 0
5987 5990 5983 0
5987 5677 5990 0
5366 5691 5373 0
5374 5687 5977 0
5682 5684 5991 0
5673 5682 5991 0
5370 5992 4865 0
5989 5992 5370 0
5977 5993 5691 0
5977 5687 5993 0
5688 5991 5684 0
4865 5992 5376 0
5685 5377 5994 0
5685 5689 5686 0
5994 5689 5685 0
5993 5687 5995 0
5377 5694 5994 0
5689 5994 5996 0
5689 5996 5383 0
5990 5677 5997 0
5687 5696 5995 0
5383 5996 5998 0
5383 5998 5711 0
5677 5700 5997 0
5999 6000 5696 0
6000 5995 5696 0
5391 5118 6001 0
5994 5704 6002 0
5694 5704 5994 0
5996 5994 6002 0
5998 5996 6002 0
6003 6000 5999 0
6004 6000 6003 0
5696 5706 5999 0
5999 5706 6003 0
5709 6001 6005 0
5391 6001 5709 0
5704 5397 6006 0
5704 6006 6002 0
5705 5695 6007 0
5707 6008 5706 0
5701 5697 5708 0
5397 5710 6006 0
6002 6006 6009 0
6010 6002 6009 0
5998 6002 6010 0
5711 5998 5712 0
5707 6011 6008 0
5708 6012 5702 0
5702 6012 6013 0
5702 6013 5703 0
5703 6013 6014 0
6015 6016 5709 0
6006 5715 6017 0
5710 5715 6006 0
6017 6009 6006 0
6010 6018 6019 0
6010 6019 5998 0
5998 6019 5712 0
5700 5717 5997 0
5707 5719 6020 0
5707 6020 6011 0
6021 5721 6016 0
5721 5709 6016 0
5715 6022 6017 0
6009 6017 6022 0
5723 6019 6018 0
5712 6019 5723 0
5719 5724 6020 0
5721 6023 5720 0
6021 6023 5721 0
5715 5722 6022 0
5723 6018 5727 0
5716 5718 5705 0
5716 5705 6024 0
6020 6025 6011 0
6025 6026 6011 0
5724 5728 6025 0
6020 5724 6025 0
6027 6023 6021 0
6028 6027 6021 0
5720 6023 6029 0
6023 6027 6029 0
5720 6029 5729 0
5725 5731 6030 0
5725 6030 5722 0
5732 6031 6032 0
6031 5732 5727 0
5717 6033 5997 0
5733 6033 5717 0
6024 5733 5716 0
6024 6034 5733 0
6034 6033 5733 0
6034 6024 6035 0
5705 6036 6024 0
6036 6035 6024 0
6025 6037 6026 0
6027 6038 6029 0
5729 6038 5734 0
6029 6038 5729 0
5735 5732 6039 0
5732 6032 6039 0
6035 6040 6034 0
6036 6040 6035 0
6041 6040 6036 0
5739 5738 6042 0
5739 6042 6036 0
6036 6042 6041 0
6037 5741 5740 0
6025 5741 6037 0
5736 5734 6038 0
5735 6043 5737 0
6039 6043 5735 0
6042 5738 5416 0
6025 5420 5741 0
5728 5420 6025 0
5731 5736 6044 0
6043 5411 5737 0
6045 5411 6043 0
5411 6045 6046 0
5746 5744 5743 0
6047 5744 5746 0
5746 5745 6047 0
5745 6048 6049 0
6048 6050 6049 0
5747 5748 5424 0
5424 5139 6051 0
5139 6046 6051 0
5139 5411 6046 0
5750 5745 5749 0
6048 5745 5750 0
6052 6049 6050 0
6052 6050 6048 0
5751 6053 5431 0
5751 5422 6054 0
6053 5751 6054 0
6054 5422 5423 0
5747 6055 5423 0
6051 5747 5424 0
5752 6048 5750 0
5752 6056 6048 0
6056 6052 6048 0
6057 6052 6056 0
6058 6052 6057 0
4893 6059 5753 0
6059 4893 5754 0
5754 5431 6053 0
5754 6053 6060 0
6060 6053 6054 0
6061 6054 5423 0
6055 6061 5423 0
5752 5755 6056 0
5758 6056 5755 0
6057 6056 5758 0
6062 6058 6057 0
5753 6059 5756 0
6063 6059 5754 0
6060 6063 5754 0
6064 6063 6060 0
6054 6064 6060 0
5758 6065 6057 0
6065 6062 6057 0
6065 6066 6062 0
5762 6067 5763 0
5765 5764 6068 0
6068 6069 5765 0
6065 5758 5760 0
6065 5760 6066 0
6066 5760 6070 0
5762 6071 6067 0
5761 6071 5762 0
6072 5765 6069 0
5766 5765 6072 0
5766 5774 5445 0
5766 6072 5774 0
5760 5771 6070 0
6070 5771 6073 0
5768 5773 6074 0
6072 6075 5774 0
5771 6076 6073 0
5776 6076 5771 0
5776 6077 6076 0
6078 5778 5452 0
6074 5773 5778 0
6078 6074 5778 0
6075 5448 5774 0
5776 5780 6077 0
6077 5780 6079 0
5780 5782 6079 0
5782 6080 6079 0
5452 5451 6081 0
5452 6081 6082 0
6078 5452 6082 0
5783 5448 6083 0
5782 5784 6080 0
6080 5784 6084 0
5784 5786 6084 0
6084 5786 5463 0
6085 5783 6083 0
6086 6084 5463 0
5788 6087 6081 0
5788 6081 5451 0
6085 6088 5783 0
6085 6089 6088 0
5463 6090 6086 0
5459 5785 5461 0
6091 6088 6089 0
5463 6092 6090 0
6088 6093 5783 0
6093 5462 5783 0
6093 6088 6091 0
6094 5185 5461 0
5185 6094 5787 0
5791 5789 5462 0
6093 5791 5462 0
5791 6093 6095 0
6096 6087 5788 0
5791 6095 5790 0
4715 5787 4716 0
6096 5788 5792 0
5793 5790 6097 0
6098 5793 6097 0
5794 5793 6098 0
4936 4716 6099 0
5469 4716 4936 0
6100 6101 6102 0
6101 4935 6102 0
6101 4194 4935 0
5792 4194 6101 0
5794 5795 5468 0
5794 6098 5795 0
5469 4936 4720 0
6100 5472 5797 0
4935 5472 6102 0
6102 5472 6100 0
6103 6104 6105 0
5795 6098 5470 0
6098 6106 5470 0
5797 5796 6100 0
6106 6107 5470 0
6103 6108 6109 0
6109 6108 5475 0
6104 6103 6109 0
6110 5798 6107 0
5798 5470 6107 0
6111 6112 6108 0
6108 6112 6113 0
5475 6108 6113 0
6109 5475 5477 0
5800 6109 5477 0
5800 6114 6109 0
6114 6104 6109 0
6115 6104 6114 0
6116 6104 6117 0
6117 6104 6115 0
6116 6117 6118 0
6119 6118 6120 0
6110 6119 6121 0
6121 6119 6120 0
5798 6121 5198 0
6110 6121 5798 0
5475 6113 5801 0
5800 5799 6114 0
5803 6114 5799 0
6115 6114 5803 0
5803 6122 6115 0
6122 6117 6115 0
6118 6117 6123 0
6123 6117 6122 0
5804 6120 6123 0
6120 6118 6123 0
5807 6120 5804 0
6121 6120 5807 0
5198 6121 5807 0
6124 6125 6126 0
6124 6127 6128 0
6125 6124 6128 0
6128 6127 5810 0
6112 5810 5811 0
5801 6112 5811 0
6113 6112 5801 0
5803 4950 6122 0
5805 6122 4950 0
6123 6122 5805 0
5804 6123 5805 0
6129 6124 6126 0
6130 6129 6126 0
5808 6127 6129 0
6127 6124 6129 0
5810 6127 5808 0
6131 6132 6133 0
6132 6131 6134 0
6134 6131 6135 0
6129 6130 6135 0
6129 6135 5813 0
5808 6129 5813 0
6136 6131 6133 0
6135 6131 6137 0
6137 6131 5815 0
5813 6137 5814 0
6135 6137 5813 0
6138 6131 6136 0
5815 6138 5816 0
5815 6131 6138 0
6137 5815 5817 0
5814 6137 5817 0
6138 6139 5816 0
5816 6139 5823 0
6140 6141 6142 0
6142 6143 6140 0
6144 6145 6143 0
6146 5822 5823 0
6145 5827 6143 0
5827 6147 6143 0
6148 5827 6145 0
6149 6148 6145 0
6150 6148 6149 0
6143 6151 6140 0
5826 6151 6147 0
6147 6151 6143 0
5827 5826 6147 0
6152 6148 6150 0
5494 5497 5821 0
6153 5824 5825 0
6153 5825 5822 0
5824 6153 5820 0
6151 5839 6140 0
6151 5826 5839 0
5829 5827 6154 0
6154 5827 6148 0
5821 5497 6155 0
5820 6156 5830 0
6153 6156 5820 0
6157 6141 6140 0
6158 6141 6157 0
5839 6157 6140 0
6159 6154 6148 0
6148 6160 6159 0
5497 5832 6155 0
6156 6161 5830 0
6161 5833 5830 0
6158 5839 6162 0
6158 6157 5839 0
6154 6163 5835 0
5829 6154 5835 0
6159 6163 6154 0
6164 5506 6165 0
6164 6166 5506 0
6166 5831 5506 0
5831 6166 5836 0
6161 5837 5833 0
5838 6162 5839 0
6167 6162 5838 0
5841 5835 6163 0
5841 6163 6168 0
6168 6163 6159 0
6169 6159 6160 0
6168 6159 6169 0
5842 6165 5506 0
5842 6170 6165 0
6171 6164 6165 0
6170 6171 6165 0
5838 6172 6167 0
5838 5520 6172 0
6168 6173 5844 0
5841 6168 5844 0
6169 6174 6168 0
6174 6173 6168 0
6169 6175 6174 0
5847 5225 6176 0
5847 6177 5848 0
6176 6177 5847 0
5848 5504 5213 0
5848 6177 5504 0
6170 5842 6178 0
6179 6170 6178 0
6171 6170 6179 0
5520 5519 6180 0
6172 5520 6180 0
5850 5844 6173 0
5850 6173 6174 0
6181 6174 6175 0
5850 6174 6181 0
5845 6182 5225 0
6183 6182 5845 0
5225 6182 6176 0
6182 6184 6176 0
6177 6176 6184 0
5504 6177 6185 0
6185 6177 6184 0
6186 5842 6185 0
6185 5842 5504 0
6178 5842 6186 0
5519 6187 6180 0
5850 5532 5525 0
5850 6181 5532 0
6181 6188 5532 0
5851 5854 6189 0
6189 5855 5851 0
5855 6190 5852 0
5852 6183 5845 0
5852 6190 6183 0
6182 6183 6191 0
6191 6183 6190 0
6192 6184 6191 0
6191 6184 6182 0
6185 6184 6192 0
6193 6185 6192 0
6186 6185 6193 0
6194 5519 5858 0
6188 5537 5532 0
6188 5867 5537 0
6189 5859 6195 0
5854 5859 6189 0
6195 5855 6189 0
5856 5853 5860 0
5858 5862 6194 0
6195 5859 6196 0
5859 5864 6196 0
6197 5538 5860 0
6196 5864 5868 0
6198 6196 5868 0
5538 6197 5544 0
6197 6199 5544 0
5862 5866 6200 0
6200 5866 5869 0
5545 5541 6201 0
5254 5545 6202 0
5545 6201 6202 0
6202 5551 5254 0
5543 6203 5868 0
5868 6203 6198 0
6204 5544 6199 0
5550 6200 5869 0
6205 6200 5550 0
5543 5871 6206 0
6203 5543 6206 0
5872 5544 6204 0
5550 4995 6205 0
6207 5870 5556 0
5875 5870 6208 0
5870 6207 6208 0
6206 5871 5875 0
6208 6206 5875 0
4995 5880 6205 0
5257 6209 5876 0
5877 5876 5261 0
5874 6210 6211 0
5874 5873 6210 0
5873 4293 6210 0
5552 5874 6211 0
5552 6211 5878 0
5878 6211 6212 0
5879 5878 6212 0
5556 5879 6212 0
6207 5556 6212 0
5560 5872 6213 0
5560 6213 6214 0
5012 5560 6215 0
5560 6214 6215 0
5012 6215 6216 0
6216 5880 5012 0
5261 5876 6217 0
5261 6217 6218 0
4786 5261 6218 0
6210 4293 4786 0
5881 4577 6219 0
6220 5564 5263 0
5263 6221 6220 0
5884 6221 5263 0
6219 5884 5881 0
6221 5884 6219 0
5886 6222 6223 0
5886 5887 6222 0
6220 5887 5564 0
5565 5888 6224 0
5565 6224 5885 0
5885 6224 5883 0
5889 6223 5569 0
6223 5889 5886 0
6224 5888 5892 0
6224 5892 6225 0
6225 5892 5891 0
6226 5031 5572 0
6226 5572 5569 0
5267 5573 6227 0
5267 6227 5893 0
5890 5570 5893 0
5890 5893 6228 0
5891 5890 6228 0
6229 5891 6228 0
5895 5578 6230 0
6226 5578 5031 0
6231 5901 5586 0
5586 6232 6231 0
6230 5586 5895 0
6232 5586 6230 0
5897 5896 6233 0
5896 5903 6233 0
5894 5905 5589 0
6234 5894 5898 0
5899 6234 5898 0
5900 6234 5899 0
5900 5906 6234 0
5906 6235 6234 0
6235 5906 5907 0
6236 6235 5907 0
5901 6237 5908 0
6237 6238 5908 0
6231 6237 5901 0
6233 5903 5902 0
6239 6233 5902 0
6240 5909 5904 0
5911 6241 5904 0
5904 6241 6240 0
5905 6241 5911 0
6236 5907 6242 0
6238 5912 5908 0
6243 5912 6238 0
5597 6244 5913 0
5910 5597 5593 0
5910 6244 5597 0
5909 6244 5910 0
6245 6244 5909 0
5907 5599 6242 0
6243 5915 5912 0
5596 5916 6246 0
5596 6246 5902 0
5902 6246 6239 0
5289 5914 5917 0
5917 5914 6247 0
5599 5919 6248 0
5599 6248 6242 0
5915 6249 6250 0
6243 6249 5915 0
5916 5920 6251 0
6251 6252 5916 0
6253 6246 5916 0
6252 6253 5916 0
6247 6254 5921 0
5917 6247 5921 0
5920 5924 6251 0
6254 6253 6252 0
5926 5613 6255 0
5926 5927 5606 0
6255 5927 5926 0
5606 5927 5281 0
5927 6256 5923 0
5923 6256 5918 0
5924 5929 6251 0
6252 6251 6257 0
6257 6251 5929 0
5930 6254 6257 0
6254 6252 6257 0
5921 6254 5930 0
5934 6258 5925 0
5925 6258 5613 0
5613 6258 6255 0
6258 6259 6255 0
6260 5927 6259 0
6259 5927 6255 0
6256 5927 6260 0
5915 6261 5936 0
6250 6261 5915 0
5944 5929 5937 0
6257 5929 5944 0
5930 6257 5944 0
5933 6262 6263 0
5933 5932 6262 0
5934 5933 6263 0
6258 5934 6263 0
6264 6258 6263 0
6259 6258 6264 0
6260 6259 6264 0
5932 5941 6262 0
6262 5941 6265 0
5941 6266 6265 0
5945 6266 5941 0
6267 6266 5946 0
5946 6266 5945 0
6267 5946 5947 0
5947 5942 6268 0
5942 5622 6268 0
5622 5948 6268 0
5067 5624 6269 0
5624 5936 6269 0
6267 5947 6270 0
6271 6270 5947 0
6268 6272 5947 0
6273 6272 6268 0
5948 5949 6273 0
6268 5948 6273 0
6271 5947 6274 0
6275 6274 5947 0
6272 6275 5947 0
5074 5067 5312 0
6276 6274 6275 0
6277 6276 6275 0
6272 6277 6275 0
5955 6278 5952 0
5952 6278 5956 0
6278 5955 6279 0
6279 5955 6280 0
5956 6278 6281 0
6278 6279 6281 0
5956 6282 5957 0
6281 6282 5956 0
5957 6282 5960 0
5639 6283 5311 0
4837 6284 5323 0
5312 6284 4837 0
5955 5959 5967 0
5967 6280 5955 0
6279 6285 6281 0
6282 6281 6286 0
6286 6281 6285 0
5960 6282 6287 0
6282 6286 6287 0
5960 6288 5961 0
6287 6288 5960 0
5961 6288 5963 0
5657 5969 6289 0
5657 6289 5639 0
6283 5639 6289 0
6290 5965 5327 0
6284 5327 5323 0
6290 5327 6284 0
6286 6291 6287 0
6288 6287 5968 0
5968 6287 6291 0
6288 5968 5963 0
5966 5971 5650 0
5966 6292 5971 0
5965 6292 5966 0
6293 6292 5965 0
6290 6293 5965 0
5967 5658 6294 0
5969 5972 6289 0
5972 6295 6289 0
5970 5333 6296 0
5964 6296 5333 0
6297 6296 5964 0
5658 5973 6298 0
5968 6291 6299 0
5972 5974 6300 0
6295 5972 6300 0
5970 6301 5665 0
5981 6302 6298 0
5981 6298 5973 0
6300 5974 5975 0
6303 6300 5975 0
5665 6301 5346 0
5981 5984 6302 0
5984 6304 6302 0
5975 5979 6303 0
5984 5983 6305 0
5675 5985 6306 0
5675 6306 5979 0
5979 6306 6303 0
5986 5980 6307 0
5983 6308 6309 0
5983 6309 6305 0
6310 5679 5978 0
6311 6306 5985 0
5988 6311 5985 0
5986 6312 5989 0
6307 6312 5986 0
5983 5990 6313 0
5983 6313 6308 0
5988 5673 5991 0
6311 5988 5991 0
5992 6312 6314 0
6312 5992 5989 0
5991 5688 6315 0
5992 6314 5376 0
5691 6316 5690 0
5691 5993 6317 0
6316 5691 6317 0
5993 5995 6317 0
5679 6310 5697 0
5688 6318 6315 0
5990 5997 6313 0
5690 6316 5695 0
6310 6319 5697 0
6318 5688 5693 0
5118 6320 6001 0
6317 6321 6316 0
6321 6322 6316 0
5995 6000 6321 0
6317 5995 6321 0
6005 6001 6323 0
5695 6316 6007 0
6007 6316 6322 0
6321 6000 6324 0
6324 6000 6004 0
5693 5703 6325 0
6005 6323 5709 0
6308 6313 6326 0
6326 6309 6308 0
5705 6007 6327 0
6328 6004 6003 0
6328 6329 6004 0
6329 6324 6004 0
6003 5706 6008 0
6328 6003 6008 0
6325 5703 6014 0
6325 6014 6330 0
6331 6015 6323 0
6015 5709 6323 0
6332 6309 6326 0
6329 6328 6333 0
6328 6008 6333 0
6008 6011 6334 0
6008 6334 6333 0
6014 6013 6335 0
6335 6330 6014 0
6015 6336 6016 0
6331 6336 6015 0
6009 6337 6010 0
6338 6337 6009 0
6010 6337 6018 0
6313 5997 6339 0
6326 6313 6339 0
6340 6332 6326 0
6334 6341 6333 0
6341 6342 6333 0
6334 6011 6341 0
6343 5697 6344 0
5708 5697 6343 0
6343 6012 5708 0
6012 6335 6013 0
6345 6330 6335 0
6016 6336 6021 0
6022 6338 6009 0
6341 6346 6342 0
6347 6343 6344 0
6348 6347 6344 0
6012 6343 6347 0
6335 6012 6349 0
6349 6012 6347 0
6349 6345 6335 0
6338 6022 6350 0
6350 6022 6351 0
6337 6338 6352 0
6352 6338 6350 0
6018 6352 5727 0
6337 6352 6018 0
6011 6026 6341 0
6347 6348 6353 0
6354 6347 6353 0
6349 6347 6354 0
6355 6349 6354 0
6021 6336 6028 0
6336 6356 6028 0
6030 6022 5722 0
6030 6357 6022 0
6357 6351 6022 0
6031 6350 6032 0
6031 6352 6350 0
5727 6352 6031 0
5997 6033 6339 0
6034 6339 6033 0
6326 6339 6034 0
6034 6340 6326 0
5705 6358 6036 0
5739 6036 6358 0
6346 5739 6358 0
5740 5739 6346 0
6037 5740 6346 0
6341 6037 6346 0
6026 6037 6341 0
6356 6027 6028 0
6027 6356 6038 0
6032 6359 6039 0
6034 6040 6340 0
6340 6040 6360 0
6041 6361 6040 0
6040 6361 6360 0
6042 6362 6041 0
6041 6362 6361 0
5736 6038 6356 0
6359 6043 6039 0
6363 6043 6359 0
6042 5416 6362 0
5416 5744 6362 0
5731 6044 6364 0
6045 6043 6365 0
6043 6363 6365 0
6045 6366 6046 0
6365 6366 6045 0
5745 6367 6047 0
5745 6049 6367 0
6049 6368 6367 0
6369 6370 6371 0
6051 6046 6366 0
6049 6052 6368 0
6058 6368 6052 0
6369 6368 6058 0
6371 6370 6372 0
6372 6370 6369 0
5747 6051 6373 0
6062 6369 6058 0
6062 6374 6369 0
6374 6372 6369 0
5747 6375 6055 0
6375 6061 6055 0
6373 6375 5747 0
6376 6063 6064 0
6054 6377 6064 0
6377 6376 6064 0
6061 6377 6054 0
6378 6377 6061 0
6379 6380 6381 0
6379 6382 6383 0
6381 6382 6379 0
6382 6384 6383 0
6062 6066 6374 0
6066 6385 6374 0
6059 6386 5756 0
6387 6059 6063 0
6376 6387 6063 0
5763 6388 6389 0
6067 6388 5763 0
5764 5763 6380 0
5763 6389 6380 0
6380 6379 6068 0
6380 6068 5764 0
6069 6068 6379 0
6069 6379 6383 0
6069 6383 6384 0
6070 6385 6066 0
5756 5772 5160 0
6386 5772 5756 0
6072 6069 6390 0
6070 6391 6392 0
6385 6070 6392 0
6067 6071 6393 0
6071 5761 6393 0
6391 6073 6394 0
6391 6070 6073 0
5768 6395 5761 0
5761 6395 6393 0
6396 6072 6390 0
6075 6072 6396 0
6073 6076 6394 0
6076 6077 6394 0
6074 6078 6397 0
6074 6397 6395 0
6074 6395 5768 0
6075 6083 5448 0
6075 6396 6083 0
6077 6398 6394 0
6079 6398 6077 0
6079 6080 6398 0
6081 6399 6082 0
6397 6078 6082 0
6397 6082 6399 0
6396 6400 6083 0
6084 6086 6080 0
6401 6399 6081 0
6402 6085 6400 0
6400 6085 6083 0
6401 6081 6087 0
6085 6402 6089 0
6402 6403 6089 0
6086 6404 6405 0
6090 6404 6086 0
6090 6406 6404 0
6403 6091 6089 0
6090 6092 6406 0
6406 6092 6407 0
6407 6092 6408 0
6091 6095 6093 0
6095 6091 6409 0
6408 6092 5463 0
6410 6408 5463 0
6411 6087 6412 0
6095 6413 5790 0
6414 5787 6094 0
6096 6412 6087 0
5790 6413 6097 0
6413 6415 6097 0
6410 5463 4939 0
6416 4716 6414 0
6414 4716 5787 0
6096 5792 6101 0
6415 6417 6097 0
4716 6416 6099 0
6416 6418 6099 0
6417 6098 6097 0
6417 6419 6098 0
6420 4936 6418 0
6418 4936 6099 0
6421 6100 6422 0
6101 6100 6421 0
6423 6098 6419 0
6424 6098 6423 0
6420 4940 5474 0
4936 6420 5474 0
5796 4940 6420 0
6100 5796 6422 0
6422 5796 6420 0
6105 6425 6103 0
6424 6426 6427 0
6424 6427 6106 0
6424 6106 6098 0
6106 6427 6428 0
6423 6426 6424 0
6425 6111 6108 0
6103 6425 6108 0
6429 6430 6105 0
6428 6431 6432 0
6106 6432 6107 0
6428 6432 6106 0
6104 6116 6105 0
6116 6429 6105 0
6431 6429 6433 0
6433 6429 6116 0
6119 6431 6433 0
6110 6431 6119 0
6432 6431 6110 0
6107 6432 6110 0
6433 6116 6118 0
6119 6433 6118 0
6111 5810 6112 0
6125 6434 6435 0
6126 6125 6435 0
6434 6125 6128 0
6135 6130 6435 0
6130 6126 6435 0
6132 6436 6437 0
6133 6132 6437 0
6436 6132 6134 0
6438 6136 6437 0
6136 6133 6437 0
6438 6138 6136 0
6139 6138 6438 0
6439 6440 6441 0
6442 6144 6441 0
6440 6442 6441 0
6443 6444 6440 0
6444 6442 6440 0
6445 6446 6447 0
6448 6446 6445 0
6449 6445 6447 0
6441 6449 6447 0
6144 6449 6441 0
6442 6145 6144 0
6149 6145 6442 0
6150 6149 6442 0
6450 6442 6444 0
6444 6451 6450 0
6452 5823 6139 0
6142 6141 6453 0
6142 6453 6445 0
6142 6445 6449 0
6445 6453 6448 0
6143 6142 6449 0
6144 6143 6449 0
6150 6442 6152 0
6152 6442 6450 0
6152 6450 6451 0
5823 6452 6146 0
5822 6146 6454 0
4939 5821 6455 0
6454 6456 5822 0
6456 6153 5822 0
6457 6152 6451 0
6148 6152 6457 0
6455 5821 6155 0
6458 6455 6155 0
6153 6456 6156 0
6141 6158 6459 0
6148 6457 6160 0
6155 5832 6458 0
6458 5832 6460 0
6461 6161 6156 0
6459 6158 6162 0
6462 6459 6162 0
6460 5832 5836 0
6166 6460 5836 0
6461 5837 6161 0
6462 6162 6167 0
6160 6463 6169 0
6166 6164 6464 0
6164 6171 6464 0
6462 6167 6172 0
6462 6172 6465 0
6463 6175 6169 0
6466 6175 6463 0
6467 6179 6178 0
6464 6171 6179 0
6467 6464 6179 0
6172 6180 6465 0
6465 6180 6468 0
6175 6466 6181 0
6186 6469 6470 0
6467 6178 6186 0
6467 6186 6471 0
6471 6186 6470 0
6468 6180 6187 0
6472 6473 6192 0
6193 6192 6469 0
6192 6473 6469 0
6469 6186 6193 0
5519 6474 6187 0
5855 6475 6190 0
6475 6476 6190 0
6190 6476 6191 0
6191 6476 6472 0
6192 6191 6472 0
6474 5519 6194 0
6188 6477 5867 0
6195 6196 6475 0
6195 6475 5855 0
5867 6477 5541 0
6477 6478 5541 0
6198 6475 6196 0
6198 6479 6475 0
6479 6480 6475 0
6481 6475 6480 0
6481 6476 6475 0
6197 6482 6199 0
6483 6484 5862 0
6484 6194 5862 0
5862 6200 6483 0
5541 6478 6201 0
6485 5551 6202 0
6479 6203 6486 0
6198 6203 6479 0
6486 6480 6479 0
6199 6482 6204 0
6482 6487 6204 0
6200 6488 6483 0
6200 6205 6488 0
5551 6485 5257 0
6203 6206 6489 0
6203 6489 6486 0
6480 6486 6489 0
6490 6484 6483 0
6208 6207 6491 0
6207 6492 6491 0
6489 6206 6208 0
6489 6208 6491 0
6204 6487 6213 0
5872 6204 6213 0
6493 6490 6483 0
6488 6494 6483 0
6494 6493 6483 0
6205 5880 6494 0
6488 6205 6494 0
5876 6209 6495 0
6211 6496 6497 0
6212 6211 6497 0
6492 6207 6212 0
6497 6492 6212 0
6493 6215 6214 0
6216 6215 6493 0
6494 6216 6493 0
5880 6216 6494 0
6217 5876 6495 0
6218 6217 6495 0
6218 6498 4786 0
6498 6499 4786 0
6210 4786 6499 0
6210 6499 6211 0
6218 6495 6500 0
6498 6218 6500 0
6501 6219 4577 0
5562 6501 4577 0
5882 6502 5562 0
5562 6502 6501 0
6502 5882 5883 0
6503 6502 5883 0
6220 6504 6505 0
6220 6221 6504 0
6501 6221 6219 0
5887 6505 6222 0
6505 5887 6220 0
5883 6224 6503 0
6503 6224 6506 0
5569 6507 6226 0
5569 6223 6507 0
6508 6225 5891 0
6506 6224 6225 0
6508 6506 6225 0
6509 5893 6227 0
6228 5893 6510 0
5893 6509 6510 0
6228 6510 6229 0
6511 6512 5897 0
6512 5581 5897 0
6227 5573 5581 0
6513 6227 5581 0
6231 6232 6514 0
5897 6233 6511 0
5894 6515 6516 0
6234 6515 5894 0
6517 6515 6235 0
6235 6515 6234 0
6235 6236 6517 0
6518 6238 6237 0
6514 6237 6231 0
6518 6237 6514 0
6239 6511 6233 0
6239 6519 6511 0
6519 6520 6511 0
6520 6521 6511 0
5905 6522 6241 0
5894 6522 5905 0
6523 6517 6242 0
6517 6236 6242 0
6238 6249 6243 0
6518 6249 6238 0
6520 6519 6524 0
6525 6520 6524 0
6526 5914 5913 0
5913 6244 6526 0
6240 6245 5909 0
6240 6527 6245 0
6241 6527 6240 0
6528 6527 6241 0
6522 6528 6241 0
6523 6242 6529 0
6239 6246 6519 0
6247 6524 6253 0
6524 6519 6253 0
6525 6524 6247 0
5914 6525 6247 0
6526 6525 5914 0
6242 6248 6529 0
6246 6253 6519 0
6247 6253 6254 0
6256 6260 6530 0
5918 6256 6531 0
6531 6256 6530 0
5919 5918 6531 0
6532 6261 6250 0
6530 6260 6264 0
6533 6530 6264 0
6534 6261 6532 0
5936 6261 6535 0
6261 6534 6535 0
6266 6536 6265 0
5936 6537 6269 0
6535 6537 5936 0
6266 6538 6536 0
6267 6538 6266 0
6270 6539 6540 0
6270 6540 6538 0
6270 6538 6267 0
6270 6271 6541 0
6539 6270 6541 0
6271 6274 6542 0
6271 6542 6541 0
6541 6542 6539 0
6274 6276 6543 0
6542 6274 6543 0
6543 6276 6544 0
6544 6276 6277 0
6272 6545 6277 0
6545 6544 6277 0
6273 6545 6272 0
6546 6545 6273 0
6546 6273 5949 0
6546 5949 6547 0
6539 6542 6548 0
6543 6549 6542 0
6549 6548 6542 0
6549 6543 6550 0
5949 5311 6547 0
6547 5311 6551 0
5311 6283 6551 0
6552 6284 5312 0
6280 6553 6279 0
6554 6553 6280 0
6279 6553 6285 0
6551 6283 6289 0
6555 6551 6289 0
6552 6290 6284 0
6556 6290 6552 0
5967 6554 6280 0
6285 6553 6557 0
6285 6558 6286 0
6557 6558 6285 0
6286 6558 6291 0
6559 5964 5971 0
5971 6292 6559 0
6293 6560 6292 0
6292 6560 6561 0
6556 6293 6290 0
6560 6293 6556 0
6294 6554 5967 0
6294 6562 6554 0
6553 6554 6562 0
6557 6553 6562 0
6558 6557 6563 0
6291 6563 6299 0
6558 6563 6291 0
6289 6295 6555 0
6555 6295 6564 0
5964 6565 6297 0
6565 6296 6297 0
6559 6565 5964 0
5658 6298 6566 0
5658 6566 6294 0
6562 6294 6566 0
6563 6557 6562 0
6564 6295 6300 0
6567 6564 6300 0
5970 6568 6301 0
5970 6296 6568 0
6299 6563 6569 0
6299 6569 5968 0
6303 6570 6300 0
6300 6570 6567 0
6302 6304 6298 0
6562 6571 6563 0
6569 6563 6571 0
6570 6303 6572 0
5980 6301 6573 0
6301 5980 5346 0
5984 6305 6574 0
5984 6574 6304 0
6304 6574 6298 0
6569 6571 6575 0
5968 6575 5978 0
6569 6575 5968 0
6303 6306 6572 0
5980 6573 6307 0
6576 6574 6305 0
6309 6576 6305 0
5978 6575 6577 0
5978 6577 6310 0
6306 6311 6572 0
6572 6311 6578 0
6579 6312 6307 0
6580 6571 6581 0
6575 6571 6580 0
6578 6311 5991 0
6582 6578 5991 0
6314 6312 6579 0
6583 6580 6581 0
6577 6575 6580 0
5991 6315 6582 0
6582 6315 6584 0
6577 6580 6585 0
6584 6315 6318 0
6577 6585 6586 0
6310 6577 6319 0
5693 6587 6318 0
6586 6588 6577 0
6577 6588 6319 0
6587 5693 6589 0
6323 6001 6320 0
6322 6327 6007 0
6322 6321 6590 0
6327 6322 6590 0
6321 6324 6590 0
5693 6325 6591 0
6592 6309 6593 0
6590 6594 6327 0
6324 6329 6594 0
6590 6324 6594 0
6591 6325 6330 0
6595 6591 6330 0
6323 6596 6331 0
6593 6309 6332 0
6329 6597 6594 0
6329 6333 6597 0
6598 5697 6319 0
6595 6330 6345 0
6331 6596 6336 0
6332 6340 6599 0
6597 6600 6594 0
6333 6342 6600 0
6597 6333 6600 0
6601 5697 6598 0
6327 6358 5705 0
6594 6602 6327 0
6602 6358 6327 0
6342 6346 6602 0
6342 6602 6600 0
6600 6602 6594 0
5697 6601 6603 0
6603 6344 5697 0
6603 6348 6344 0
6604 6349 6605 0
6345 6349 6604 0
6605 6606 6604 0
6602 6346 6358 0
6348 6603 6607 0
6353 6348 6607 0
6608 6354 6607 0
6354 6353 6607 0
6608 6355 6354 0
6355 6605 6349 0
6336 6596 6356 0
6596 6609 6356 0
6351 6357 6610 0
6351 6611 6350 0
6610 6611 6351 0
6350 6611 6032 0
6612 6613 6608 0
6355 6608 6613 0
6605 6355 6614 0
6614 6606 6605 0
6609 6615 6356 0
6357 6616 6610 0
6610 6617 6618 0
6610 6618 6611 0
6032 6618 6359 0
6611 6618 6032 0
6361 6340 6360 0
6619 6340 6361 0
6619 6361 6620 0
6361 6362 6620 0
6612 6621 6613 0
6622 6623 6624 0
6625 6356 6615 0
5731 6364 6626 0
5731 6626 6030 0
6357 6030 6626 0
6627 6357 6626 0
6616 6357 6627 0
6363 6618 6617 0
6359 6618 6363 0
5744 6628 6629 0
5744 6629 6630 0
5744 6630 6362 0
6355 6613 6371 0
6614 6355 6371 0
6622 6614 6371 0
6626 6364 6631 0
6363 6617 6365 0
6617 6632 6365 0
6628 5744 6633 0
5744 6047 6633 0
6047 6634 6635 0
6047 6635 6633 0
6636 6635 6634 0
6371 6636 6634 0
6621 6636 6371 0
6613 6621 6371 0
6356 6625 6637 0
5736 6356 6637 0
6632 6366 6365 0
6638 6366 6632 0
6047 6367 6634 0
6368 6634 6367 0
6371 6634 6368 0
6369 6371 6368 0
6623 6622 6639 0
6638 6051 6366 0
6640 6051 6638 0
6372 6641 6371 0
6622 6371 6641 0
6372 6374 6641 0
6642 6061 6643 0
6643 6061 6375 0
6643 6375 6373 0
6374 6385 6641 0
6644 6645 6623 0
6639 6644 6623 0
6061 6642 6378 0
6380 6646 6381 0
6647 6648 6382 0
6647 6382 6646 0
6646 6382 6381 0
6384 6382 6648 0
6384 6648 6649 0
6639 6622 6650 0
6651 6639 6650 0
6644 6639 6651 0
6652 6653 6389 0
6653 6380 6389 0
6653 6646 6380 0
6649 6654 6384 0
6655 6649 6656 0
6654 6649 6655 0
6622 6641 6385 0
6650 6622 6657 0
6657 6622 6385 0
6658 6651 6650 0
6657 6658 6650 0
6069 6384 6390 0
6659 6654 6660 0
6659 6390 6654 0
6390 6384 6654 0
6655 6660 6654 0
6392 6661 6662 0
6391 6661 6392 0
6385 6392 6663 0
6663 6392 6662 0
6657 6385 6663 0
6664 6657 6663 0
6658 6657 6664 0
6393 6665 6067 0
6067 6665 6388 0
6661 6391 6394 0
6666 6661 6394 0
6390 6400 6396 0
6400 6390 6659 0
6397 6667 6395 0
6667 6393 6395 0
6394 6398 6668 0
6668 6398 6669 0
6398 6080 6669 0
6667 6397 6399 0
6670 6400 6659 0
6080 6086 6671 0
6671 6086 6672 0
6667 6399 6401 0
6667 6401 6673 0
6402 6400 6670 0
6670 6674 6402 0
6672 6086 6405 0
6087 6675 6401 0
6676 6402 6674 0
6403 6402 6676 0
6405 6404 6672 0
6672 6404 6677 0
6404 6406 6677 0
6677 6406 6407 0
6678 6677 6407 0
6679 6675 6411 0
6411 6675 6087 0
6403 6409 6091 0
6403 6676 6409 0
6676 6680 6409 0
6678 6407 6408 0
6679 6411 6681 0
6680 6095 6409 0
6678 6408 6410 0
6678 6410 6682 0
5461 5785 6094 0
5785 6683 6094 0
6684 6681 6412 0
6681 6411 6412 0
6413 6095 6685 0
6682 6410 4939 0
6414 6094 6683 0
6412 6686 6684 0
6412 6096 6686 0
6413 6685 6415 0
6415 6685 6687 0
6416 6414 6683 0
6418 6416 6683 0
6684 6686 6421 0
6686 6101 6421 0
6686 6096 6101 0
6415 6688 6689 0
6415 6689 6417 0
6687 6688 6415 0
6421 6422 6690 0
6691 6692 6693 0
6691 6425 6694 0
6692 6691 6694 0
6694 6425 6695 0
6689 6419 6417 0
6696 6419 6689 0
6111 6691 6693 0
6697 6111 6693 0
6425 6691 6111 0
6105 6695 6425 0
6430 6695 6105 0
6430 6698 6699 0
6700 6698 6701 0
6702 6423 6696 0
6423 6419 6696 0
6430 6703 6698 0
6704 6698 6703 0
6427 6704 6428 0
6427 6701 6704 0
6701 6698 6704 0
6426 6701 6427 0
6702 6701 6426 0
6423 6702 6426 0
6430 6429 6703 0
6431 6703 6429 0
6704 6703 6431 0
6428 6704 6431 0
6705 6706 6707 0
5810 6707 6128 0
6706 6708 6709 0
6709 6708 6710 0
6434 6709 6435 0
6434 6707 6709 0
6707 6706 6709 0
6128 6707 6434 0
6708 6711 6712 0
6708 6712 6710 0
6135 6710 6134 0
6709 6710 6135 0
6435 6709 6135 0
6713 6712 6711 0
6714 6713 6711 0
6436 6713 6437 0
6436 6710 6713 0
6710 6712 6713 0
6134 6710 6436 0
6438 6713 6714 0
6437 6713 6438 0
6715 6716 6717 0
6718 6716 6715 0
6441 6715 6719 0
6719 6715 6717 0
6439 6441 6719 0
6720 6440 6439 0
6720 6721 6440 0
6438 6722 6139 0
6447 6718 6715 0
6447 6446 6718 0
6441 6447 6715 0
6440 6723 6443 0
6440 6721 6723 0
6443 6723 6444 0
6444 6723 6724 0
6444 6724 6451 0
6452 6454 6146 0
6453 6141 6725 0
6725 6141 6459 0
6461 6156 6726 0
6725 6459 6462 0
6725 6462 6727 0
6166 6728 6460 0
6460 6728 6458 0
6160 6729 6463 0
6166 6730 6728 0
5837 6461 5843 0
6461 6731 5843 0
6464 6467 6730 0
6464 6730 6166 0
6731 5849 5843 0
6463 6732 6466 0
6732 6181 6466 0
6733 6468 6187 0
6181 6732 6188 0
6472 6469 6473 0
6469 6734 6735 0
6469 6735 6470 0
6471 6470 6735 0
6736 6471 6735 0
5860 5853 6737 0
6187 6474 6733 0
6733 6474 6738 0
6734 6469 6472 0
6738 6474 6194 0
6739 6738 6194 0
6740 6188 6741 0
6188 6740 6477 0
6740 6478 6477 0
6740 6742 6478 0
6472 6476 6743 0
6197 5860 6744 0
6744 6482 6197 0
6194 6484 6739 0
6478 6742 6202 0
6478 6202 6201 0
6745 6746 6480 0
6746 6481 6480 0
6481 6743 6476 0
6747 6487 6744 0
6744 6487 6482 0
6739 6484 6748 0
6485 6749 5257 0
6489 6745 6480 0
6489 6750 6745 0
6750 6751 6745 0
6752 6746 6751 0
6751 6746 6745 0
6481 6746 6752 0
6753 6754 6755 0
6754 6748 6490 0
6490 6748 6484 0
5257 6749 6209 0
6492 6756 6491 0
6757 6756 6492 0
6756 6758 6491 0
6758 6489 6491 0
6750 6489 6759 0
6759 6489 6758 0
6751 6750 6759 0
6487 6755 6213 0
6213 6755 6760 0
6754 6761 6755 0
6761 6760 6755 0
6490 6493 6761 0
6754 6490 6761 0
6496 6211 6762 0
6496 6762 6497 0
6762 6763 6497 0
6763 6764 6497 0
6764 6765 6497 0
6497 6757 6492 0
6497 6765 6757 0
6756 6757 6766 0
6766 6757 6765 0
6214 6213 6760 0
6761 6214 6760 0
6493 6214 6761 0
6499 6762 6211 0
6767 6762 6768 0
6764 6763 6767 0
6767 6763 6762 0
6766 6765 6769 0
6495 6209 6770 0
6500 6495 6770 0
6500 6770 6771 0
6498 6500 6771 0
6772 6762 6499 0
6772 6768 6762 0
6499 6498 6773 0
6774 6499 6773 0
6775 6499 6774 0
6772 6499 6775 0
6505 6504 6776 0
6776 6504 6221 0
6221 6777 6776 0
6501 6778 6221 0
6502 6778 6501 0
6779 6778 6502 0
6779 6502 6503 0
6779 6503 6780 0
6781 6223 6222 0
6781 6222 6505 0
6782 6781 6505 0
6503 6506 6780 0
6781 6783 6223 0
6508 6784 6506 0
6506 6784 6780 0
6785 6226 6507 0
6786 6229 6510 0
6229 6786 6787 0
6508 5891 6229 0
6508 6229 6788 0
6788 6229 6787 0
6784 6508 6788 0
6789 6230 5578 0
5578 6785 6789 0
6785 5578 6226 0
6512 6511 6790 0
6790 6791 6512 0
6791 5581 6512 0
6792 6513 5581 0
6509 6227 6513 0
6509 6513 6793 0
6793 6513 6792 0
6510 6509 6793 0
6230 6794 6232 0
6789 6794 6230 0
6790 6521 6795 0
6511 6521 6790 0
6795 6791 6790 0
6796 5581 6791 0
6521 6520 6797 0
6521 6797 6795 0
6797 6798 6795 0
6515 6517 6799 0
6799 6517 6523 0
6800 6249 6518 0
6801 6249 6800 0
6520 6525 6797 0
6526 6797 6525 0
6798 6797 6526 0
6798 6526 6802 0
6244 6803 6526 0
6526 6803 6802 0
6244 6245 6803 0
6527 6804 6245 0
6528 6522 6527 0
6527 6522 6804 0
6805 6522 5894 0
6516 6805 5894 0
6523 6806 6799 0
6806 6523 6529 0
6807 6249 6801 0
6529 6248 6806 0
6250 6249 6808 0
6532 6808 6809 0
6808 6532 6250 0
5919 6810 6248 0
6262 6811 6263 0
6264 6263 6812 0
6264 6812 6533 0
6530 6533 6813 0
5919 6530 6813 0
6531 6530 5919 0
6534 6532 6814 0
6532 6809 6814 0
6262 6265 6811 0
6534 6815 6535 0
6814 6815 6534 0
6265 6536 6811 0
6537 6815 6816 0
6815 6537 6535 0
6537 6816 6269 0
6816 6817 6269 0
6538 6540 6818 0
6269 6819 5067 0
6269 6817 6819 0
6820 6818 6540 0
6544 6821 6543 0
6544 6545 6546 0
6821 6544 6546 0
5067 6822 5312 0
6819 6822 5067 0
6539 6823 6820 0
6539 6820 6540 0
6543 6821 6550 0
6546 6824 6821 0
6824 6550 6821 0
6825 6826 6823 0
6548 6825 6823 0
6548 6823 6539 0
6548 6549 6827 0
6825 6548 6827 0
6549 6550 6827 0
6824 6827 6550 0
6547 6551 6824 0
6546 6547 6824 0
6824 6828 6827 0
6555 6828 6824 0
6551 6555 6824 0
6829 6556 6830 0
6830 6556 6552 0
6828 6831 6827 0
6828 6555 6831 0
6292 6561 6559 0
6559 6561 6832 0
6829 6561 6560 0
6556 6829 6560 0
6555 6564 6831 0
6833 6296 6565 0
6832 6565 6559 0
6833 6565 6832 0
6566 6834 6562 0
6567 6835 6831 0
6831 6835 6827 0
6564 6567 6831 0
6296 6836 6568 0
6833 6836 6296 0
6834 6566 6837 0
6835 6838 6827 0
6567 6570 6838 0
6835 6567 6838 0
6839 6301 6568 0
6834 6837 6840 0
6834 6841 6562 0
6562 6841 6571 0
6842 6826 6825 0
6843 6826 6842 0
6827 6844 6825 0
6844 6842 6825 0
6572 6844 6838 0
6838 6844 6827 0
6570 6572 6838 0
6573 6301 6839 0
6566 6574 6845 0
6298 6574 6566 0
6846 6566 6845 0
6846 6837 6566 0
6840 6847 6834 0
6841 6834 6848 0
6848 6834 6847 0
6571 6848 6581 0
6841 6848 6571 0
6843 6842 6849 0
6842 6844 6849 0
6844 6572 6849 0
6845 6574 6850 0
6574 6576 6850 0
6848 6851 6581 0
6852 6849 6578 0
6849 6572 6578 0
6579 6853 6854 0
6853 6579 6307 0
6309 6592 6855 0
6309 6855 6576 0
6576 6855 6850 0
6582 6852 6578 0
6314 6579 6856 0
6579 6854 6856 0
6857 6855 6592 0
6581 6851 6583 0
6582 6584 6852 0
6856 5376 6314 0
6858 6580 6583 0
6858 6583 6851 0
6580 6858 6585 0
6859 6584 6318 0
5118 5376 6860 0
6585 6861 6586 0
6858 6861 6585 0
6318 6587 6859 0
5118 6860 6320 0
6588 6586 6861 0
6862 6323 6320 0
5693 6591 6863 0
5693 6863 6589 0
6596 6862 6864 0
6862 6596 6323 0
6592 6593 6857 0
6588 6865 6319 0
6866 6865 6588 0
6863 6591 6595 0
6863 6595 6345 0
6593 6332 6857 0
6332 6599 6857 0
6319 6865 6867 0
6865 6868 6867 0
6319 6867 6598 0
6868 6866 6869 0
6868 6869 6867 0
6598 6869 6601 0
6867 6869 6598 0
6345 6604 6870 0
6870 6604 6871 0
6603 6869 6872 0
6603 6601 6869 0
6873 6871 6606 0
6871 6604 6606 0
6873 6874 6875 0
6864 6876 6596 0
6619 6599 6340 0
6877 6599 6878 0
6878 6599 6619 0
6879 6880 6877 0
6878 6879 6877 0
6607 6872 6881 0
6607 6603 6872 0
6607 6881 6608 0
6875 6874 6882 0
6875 6882 6883 0
6876 6609 6596 0
6884 6878 6619 0
6885 6879 6878 0
6885 6878 6884 0
6881 6886 6612 0
6881 6612 6608 0
6873 6614 6887 0
6606 6614 6873 0
6874 6873 6887 0
6882 6874 6624 0
6624 6874 6887 0
6888 6883 6882 0
6624 6888 6882 0
6615 6609 6889 0
6610 6616 6890 0
6610 6890 6617 0
6619 6620 6884 0
6362 6884 6620 0
6885 6884 6362 0
6885 6362 6630 0
6885 6630 6891 0
6891 6630 6892 0
6886 6893 6894 0
6895 6886 6894 0
6621 6612 6895 0
6612 6886 6895 0
6614 6622 6887 0
6624 6887 6622 0
6624 6623 6896 0
6624 6896 6888 0
6615 6889 6625 0
6627 6626 6897 0
6626 6898 6897 0
6616 6627 6897 0
6616 6897 6899 0
6616 6899 6890 0
6890 6899 6617 0
6630 6900 6892 0
6629 6900 6630 0
6629 6628 6900 0
6894 6635 6636 0
6621 6894 6636 0
6895 6894 6621 0
6623 6645 6896 0
6044 6901 6364 0
6631 6364 6902 0
6364 6901 6902 0
6898 6626 6631 0
6902 6898 6631 0
6903 6632 6899 0
6899 6632 6617 0
6635 6628 6633 0
6904 6896 6645 0
6625 6905 6906 0
6625 6906 6637 0
6637 6906 6907 0
5736 6637 6907 0
6044 5736 6908 0
5736 6907 6908 0
6908 6901 6044 0
6638 6632 6903 0
6638 6903 6909 0
6909 6640 6638 0
6910 6645 6911 0
6643 6373 6912 0
6642 6643 6912 0
6648 6647 6913 0
6649 6648 6913 0
6914 6649 6913 0
6914 6656 6649 0
6914 6915 6656 0
6645 6644 6911 0
6911 6644 6916 0
6378 6642 6377 0
6377 6642 6376 0
6917 6647 6646 0
6918 6917 6646 0
6651 6919 6916 0
6916 6644 6651 0
6059 6920 6921 0
6386 6059 6921 0
6387 6922 6059 0
6059 6922 6920 0
6922 6387 6376 0
6918 6646 6653 0
6652 6918 6653 0
6656 6915 6655 0
6915 6923 6655 0
6651 6658 6919 0
6919 6658 6924 0
6389 6388 6925 0
6389 6925 6652 0
6926 6662 6661 0
6926 6927 6662 0
6927 6663 6662 0
6663 6927 6928 0
6664 6663 6929 0
6663 6928 6929 0
6924 6658 6664 0
6929 6924 6664 0
6386 6930 5772 0
6388 6665 6931 0
6925 6388 6931 0
6660 6932 6659 0
6661 6666 6926 0
6926 6666 6933 0
6931 6665 6393 0
6666 6934 6933 0
6394 6934 6666 0
6668 6935 6394 0
6394 6935 6934 0
6936 6935 6668 0
6667 6937 6393 0
6932 6938 6659 0
6668 6669 6936 0
6080 6939 6669 0
6939 6080 6671 0
6937 6667 6940 0
6938 6670 6659 0
6670 6941 6674 0
6941 6942 6674 0
6943 6401 6675 0
6942 6676 6674 0
6942 6944 6676 0
6677 6945 6672 0
6945 6677 6678 0
6946 6945 6678 0
6943 6675 6679 0
6947 6943 6679 0
6680 6676 6944 0
6946 6678 6682 0
6948 5785 5777 0
6949 5785 6948 0
6950 6951 6947 0
6950 6947 6681 0
6681 6947 6679 0
6949 6683 5785 0
6950 6681 6684 0
6095 6680 6685 0
6682 4939 6946 0
6685 6952 6687 0
6683 6953 6418 0
6950 6690 6954 0
6421 6690 6684 0
6684 6690 6950 0
6955 6689 6688 0
6955 6688 6956 0
6956 6688 6957 0
6952 6688 6687 0
6957 6688 6952 0
6418 6953 6420 0
6422 6420 6953 0
6954 6422 6953 0
6690 6422 6954 0
6692 6958 6959 0
6693 6692 6959 0
6960 6958 6694 0
6958 6692 6694 0
6695 6960 6694 0
6961 6695 6430 0
6699 6961 6430 0
6699 6962 6961 0
6963 6962 6699 0
6689 6955 6702 0
6955 6700 6702 0
6689 6702 6696 0
6697 6693 6959 0
6963 6699 6698 0
6700 6963 6698 0
6702 6700 6701 0
6697 5810 6111 0
5810 6705 6707 0
6964 6965 6966 0
6967 6964 6966 0
6708 6968 6964 0
6968 6965 6964 0
6706 6968 6708 0
6969 6968 6706 0
6705 6969 6706 0
6964 6967 6711 0
6964 6711 6708 0
6970 6971 6972 0
6970 6972 6439 0
6972 6720 6439 0
6971 6720 6972 0
6439 6719 6717 0
6973 6720 6971 0
6971 6974 6973 0
6438 6714 6722 0
6721 6720 6973 0
6975 6973 6974 0
6721 6973 6975 0
6721 6975 6723 0
6139 6722 6976 0
6723 6977 6724 0
6446 6448 6978 0
6724 6977 6451 0
6977 6729 6451 0
6452 6139 6976 0
6979 6452 6976 0
6978 6448 6453 0
6980 6978 6453 0
6452 6979 6454 0
6980 6453 6725 0
6454 6981 6982 0
6982 6456 6454 0
6451 6729 6457 0
6456 6982 6156 0
6982 6726 6156 0
6457 6729 6160 0
6727 6462 6983 0
6458 6728 6984 0
6983 6462 6465 0
6985 6983 6465 0
6730 6986 6728 0
6986 6984 6728 0
6987 5849 6731 0
6465 6468 6985 0
6985 6468 6988 0
6467 6471 6989 0
6467 6989 6990 0
6467 6990 6730 0
5849 6987 5853 0
6987 6737 5853 0
6991 6732 6463 0
6989 6471 6736 0
6989 6736 6735 0
6468 6992 6988 0
6992 6468 6733 0
6992 6733 6993 0
6993 6733 6738 0
6994 6993 6738 0
6738 6739 6994 0
6188 6732 6741 0
6995 6740 6741 0
6740 6996 6742 0
6995 6996 6740 0
5860 6997 6744 0
6997 6998 6744 0
6994 6739 6999 0
6995 7000 7001 0
6995 7001 6996 0
6742 7002 6202 0
6742 6996 7002 0
6996 7001 7002 0
6202 7002 6485 0
7003 6743 7004 0
7003 7005 6743 0
6744 6998 7006 0
6747 6744 7006 0
6487 6747 7007 0
6747 7006 7007 0
6999 7008 6753 0
6739 6748 7008 0
6999 6739 7008 0
7009 7001 7000 0
7010 7009 7000 0
7002 7001 7011 0
7011 7001 7009 0
6485 7011 6749 0
7002 7011 6485 0
6752 7012 6481 0
6481 7012 6743 0
7012 7013 6743 0
7013 7004 6743 0
6487 7007 6755 0
6753 6755 7007 0
7008 6754 6753 0
6748 6754 7008 0
7009 7010 7014 0
7011 7009 7014 0
7015 7011 7014 0
6209 7011 7015 0
6209 6749 7011 0
6758 6756 7016 0
6758 7017 6759 0
7016 7017 6758 0
6759 7018 6751 0
7017 7018 6759 0
6751 7018 6752 0
7012 6752 7018 0
7013 7012 7019 0
7019 7012 7018 0
6209 7015 7020 0
7016 6766 7021 0
6756 6766 7016 0
7021 7017 7016 0
6209 7020 7022 0
6764 6769 6765 0
6769 7023 6766 0
6766 7023 7021 0
7017 7021 7023 0
6770 6209 7022 0
6768 7024 6767 0
7025 7024 6768 0
6767 7024 6764 0
6771 6770 7026 0
7027 6771 7026 0
6498 6771 7027 0
6498 7027 6773 0
6773 7027 7028 0
6774 6773 7028 0
6775 7029 6772 0
6772 7025 6768 0
6772 7029 7025 0
7024 7025 7029 0
6764 7024 7030 0
7030 7024 7029 0
7031 6769 7030 0
7030 6769 6764 0
6775 6774 7032 0
7030 7029 6775 0
7033 7030 6775 0
7031 7030 7033 0
7034 6777 6221 0
6778 7034 6221 0
6778 7035 7034 0
6779 7035 6778 0
7035 6779 6780 0
7036 7035 6780 0
6781 6782 7037 0
6776 6782 6505 0
6777 6782 6776 0
7038 6782 6777 0
6783 7039 6223 0
6223 7039 6507 0
7037 6783 6781 0
7039 6783 7037 0
6780 6784 7036 0
7036 6784 7040 0
6507 7041 6785 0
7042 6788 6787 0
7040 6784 6788 0
7042 7040 6788 0
6789 6785 7043 0
7041 7044 6785 0
6792 5581 7045 0
6792 7045 6793 0
6793 7046 6510 0
7045 7046 6793 0
6510 7046 7047 0
6510 7047 6786 0
6787 6786 7047 0
7048 6514 6232 0
6794 7049 6232 0
6232 7049 7048 0
7043 6794 6789 0
7049 6794 7043 0
6791 6795 7050 0
7050 6796 6791 0
6796 7045 5581 0
7046 7045 7051 0
7052 6800 6518 0
6514 7053 6518 0
7053 7052 6518 0
7048 7053 6514 0
7050 6798 7054 0
6795 6798 7050 0
6796 7050 7054 0
7045 6796 7055 0
7055 6796 7054 0
7055 7051 7045 0
6515 6799 7056 0
6800 7057 6801 0
7052 7057 6800 0
6798 6802 7054 0
6803 7054 6802 0
7055 7054 6803 0
7055 6803 7058 0
6803 6245 7058 0
6804 7058 6245 0
6516 7059 6805 0
6515 7059 6516 0
7056 7059 6515 0
6806 7056 6799 0
7057 7060 6801 0
6804 7061 7058 0
6522 7061 6804 0
6805 7061 6522 0
7062 7056 6806 0
7062 6806 7063 0
7060 6807 6801 0
7063 6806 7064 0
6807 6808 6249 0
6806 6248 7064 0
6808 7065 6809 0
6263 6811 6812 0
6533 6812 7066 0
6533 7066 6813 0
6809 7067 6814 0
