#!ascii version written be Caret
18434 36864
11.951940 -34.548855 -8.382866 0
6.286735 -35.855385 -10.860809 0
10.352832 -33.995064 -8.966964 0
10.745891 -34.272423 -8.848671 0
10.448015 -34.669647 -8.626667 0
10.277921 -34.284416 -8.858510 0
11.036861 -34.636200 -8.583681 0
13.291848 -33.287796 -7.794437 0
13.310404 -33.521873 -7.837486 0
6.069953 -34.977985 -10.852348 0
10.127322 -33.156048 -9.205771 0
10.506372 -33.756947 -9.079885 0
13.273251 -33.024509 -7.782419 0
5.866384 -34.358536 -11.147211 0
10.618504 -33.476864 -9.190155 0
13.160479 -32.567467 -7.926279 0
12.861209 -32.018463 -8.285292 0
9.698919 -33.318058 -9.181790 0
9.843983 -33.693344 -9.092433 0
10.570899 -33.084385 -9.274927 0
10.484479 -32.640491 -9.309226 0
11.058311 -31.575140 -9.262485 0
11.758800 -30.856394 -8.947226 0
12.285277 -30.735332 -8.585747 0
10.179081 -32.174423 -9.317709 0
10.478261 -31.318226 -9.290505 0
9.793475 -31.510870 -9.335155 0
-10.459249 -29.912710 -9.497310 0
-10.888770 -29.374611 -10.490503 0
6.136497 -29.926682 -12.219119 0
6.481252 -29.661186 -12.662733 0
-12.201014 -27.824972 -9.984646 0
5.633812 -29.706478 -11.188013 0
6.101953 -28.822952 -12.139976 0
-13.564552 -25.908463 -10.702298 0
-13.198444 -26.473110 -10.466225 0
5.865323 -29.650982 -11.777280 0
5.906026 -27.732668 -11.867174 0
5.744550 -28.005436 -11.597958 0
6.186002 -27.770996 -12.264153 0
5.716253 -28.793770 -11.487239 0
-14.031770 -25.309105 -9.371338 0
5.534678 -28.577747 -10.971661 0
6.594378 -26.064472 -13.121922 0
-13.777716 -20.843349 -13.907726 0
-15.711968 -22.304134 -9.539312 0
-13.985379 -20.734125 -13.628992 0
6.511251 -25.025131 -13.013231 0
-14.459152 -20.397823 -13.007225 0
-13.304329 -20.569851 -14.582539 0
6.390407 -24.140287 -12.712739 0
-14.573323 -19.880230 -12.706043 0
-14.907033 -19.303940 -12.168471 0
6.332419 -20.847303 -13.199819 0
6.357786 -22.226120 -13.179804 0
-16.315868 -20.676615 -8.795868 0
-15.232096 -19.275173 -11.785007 0
-13.864287 -18.968472 -13.931496 0
-15.537052 -18.862719 -11.279931 0
-15.896302 -18.358135 -10.642126 0
6.440085 -19.614611 -12.928966 0
-16.122658 -18.028456 -10.227220 0
-16.876369 -18.537031 -8.221913 0
-15.023539 -16.284340 -12.334929 0
6.575440 -18.104404 -13.120135 0
6.679059 -17.073235 -13.235802 0
-15.882793 -14.215673 -11.734034 0
6.700840 -16.179197 -13.433804 0
-15.779737 -14.329917 -12.534945 0
7.064808 -14.502006 -13.389735 0
7.074052 -15.455342 -13.025622 0
7.366847 -14.066564 -13.082958 0
7.284927 -14.657076 -12.978672 0
7.477927 -14.181307 -12.829274 0
-16.173754 -13.478591 -12.245166 0
-16.033743 -13.838615 -11.980706 0
7.085457 -13.692915 -13.603365 0
7.375142 -13.512402 -13.253909 0
7.615339 -13.535872 -12.831469 0
-16.530979 -12.723365 -11.876862 0
7.904636 -12.899917 -12.527974 0
-17.320803 -10.972594 -11.412708 0
-17.528131 -10.443298 -11.241821 0
-18.481487 -7.352386 -9.302467 0
-18.459713 -7.051033 -10.051167 0
8.207480 -11.724710 -12.536189 0
8.376426 -10.764015 -12.682792 0
8.631016 -9.840907 -12.656783 0
-18.554317 -5.549192 -10.581543 0
8.895923 -8.010432 -12.883988 0
9.212107 -8.255827 -12.374126 0
8.998413 -9.001973 -12.418216 0
9.321901 -7.287912 -12.542901 0
8.589389 -9.150795 -12.955521 0
9.463959 -5.800860 -12.831505 0
-18.650637 -4.280962 -10.727243 0
-18.690483 -4.669426 -10.253454 0
-14.138745 -0.418180 -9.661467 0
-14.302732 -1.041114 -9.076967 0
-13.949374 -1.081648 -9.222679 0
-14.558039 -0.166799 -9.620589 0
-18.743858 -3.712584 -10.352590 0
-18.597410 -3.894456 -11.056770 0
-14.434644 0.309267 -10.050470 0
-15.007324 0.745438 -9.976105 0
-13.701354 -0.714063 -9.580993 0
-18.625023 -3.152454 -11.039875 0
-13.254718 -0.643914 -9.648664 0
9.670609 -4.276149 -13.025965 0
-18.570988 -2.337817 -11.357485 0
-13.173215 -0.289804 -9.941136 0
-12.502242 -0.744215 -9.400371 0
-13.060307 0.067413 -10.270926 0
-12.851306 -0.245078 -9.964822 0
-12.735362 -0.013694 -10.084798 0
10.741700 -2.980049 -12.210082 0
12.913225 1.276418 -10.737316 0
13.482457 2.489393 -10.230367 0
-18.468512 -0.376572 -11.925678 0
-18.612276 -1.096522 -11.367358 0
14.534221 4.889875 -8.982203 0
14.467733 4.275218 -9.051405 0
-12.199250 1.948749 -11.020443 0
-11.875196 3.906518 -12.053979 0
-11.758446 4.705107 -12.422674 0
-16.253923 4.324277 -11.660129 0
-18.133627 2.517545 -11.632602 0
-16.789745 5.017737 -12.090576 0
-16.611671 5.640996 -12.435148 0
16.751337 7.977982 -4.194218 0
-17.671076 3.865496 -11.772468 0
-17.252617 4.888165 -12.133652 0
-16.999218 5.800249 -12.647902 0
-16.799040 6.085111 -12.768204 0
-11.578975 11.082354 -12.187474 0
-11.989998 11.235854 -11.668574 0
-13.215191 12.750852 -10.819235 0
-13.800845 13.070674 -10.356936 0
-13.666758 13.868556 -10.657791 0
-13.256092 13.882971 -11.045300 0
-12.653121 10.738787 -10.716184 0
-12.440571 12.262725 -11.452457 0
-11.451086 12.170300 -12.659770 0
-12.893806 14.029581 -11.411469 0
-12.595488 13.424612 -11.575154 0
-11.777216 12.719034 -12.341299 0
-12.069950 13.708756 -12.178275 0
-11.578549 13.741542 -12.780977 0
16.228678 8.865148 -6.034923 0
-13.869294 15.374032 -10.729494 0
16.039745 9.481497 -6.621061 0
-14.627928 14.330220 -9.778788 0
-14.210758 15.100883 -10.349512 0
14.796370 10.826207 -9.224938 0
15.798874 10.224751 -7.155022 0
-14.286028 15.781490 -10.327044 0
-14.736917 15.506157 -9.795791 0
14.550117 11.176174 -9.695715 0
13.703192 13.406562 -10.696174 0
14.488306 12.824705 -9.551623 0
14.692212 11.977190 -9.333920 0
13.716510 13.882317 -10.505976 0
13.751419 14.504163 -10.145254 0
6.273498 21.242456 -13.227827 0
6.765036 20.581179 -13.248053 0
7.648035 20.100306 -12.869017 0
11.909799 17.433828 -10.864048 0
8.483503 19.538900 -12.524629 0
9.835291 19.811991 -11.249301 0
11.458571 18.250891 -10.805357 0
-13.900365 18.700344 -10.788354 0
-14.233610 18.889553 -10.356486 0
5.510905 23.111378 -12.633521 0
4.686996 24.202675 -12.460666 0
-13.893941 19.339609 -10.735870 0
-14.051218 19.666525 -10.444280 0
-13.497485 19.479910 -11.161279 0
3.720416 25.160927 -12.411772 0
-13.688958 19.931553 -10.874024 0
-13.298848 20.390978 -11.233836 0
-12.818654 21.070484 -11.643337 0
2.883466 25.565414 -12.742953 0
-12.795341 21.698345 -11.483201 0
1.652745 26.484695 -12.856849 0
2.355496 26.111586 -12.656520 0
-10.346853 25.087416 -10.709190 0
-10.370939 24.828407 -10.098201 0
-9.749992 25.289005 -10.263386 0
-8.074480 26.250788 -9.846766 0
-8.102377 26.418385 -10.389218 0
-8.885916 25.836414 -10.256011 0
-6.970462 27.066652 -9.974643 0
-12.378044 22.682516 -11.541499 0
-9.425617 25.737963 -10.895887 0
-8.077223 26.558168 -10.823077 0
-6.249940 27.595627 -10.493523 0
-6.417950 27.388935 -9.078069 0
-6.095428 27.663565 -9.742805 0
-5.555530 27.955666 -8.850819 0
-5.794714 27.758526 -8.334082 0
-12.033964 23.364679 -11.562870 0
-11.319572 24.340181 -11.389507 0
-11.002195 24.653748 -11.126217 0
-10.064816 25.402851 -11.400717 0
-9.208791 26.037109 -11.521200 0
-8.462097 26.426046 -11.236091 0
-5.428658 28.048800 -9.604815 0
-4.887969 28.270607 -9.900229 0
-8.473413 26.566410 -11.934062 0
7.566987 -39.547771 -9.422103 0
4.935609 -39.843697 -10.068797 0
3.712246 -39.583878 -10.185914 0
4.416479 -39.756790 -10.054378 0
8.230568 -38.766117 -9.073689 0
7.939764 -39.063622 -9.580127 0
2.476755 -39.261776 -9.831014 0
7.739293 -38.168175 -9.801473 0
13.057720 -34.517582 -7.724016 0
12.837387 -34.585655 -7.882808 0
13.226058 -34.453968 -7.447864 0
1.634498 -38.916218 -10.338137 0
1.406296 -38.918079 -9.353050 0
12.570601 -34.732227 -7.822589 0
-0.524937 -38.002609 -10.029945 0
0.451779 -38.515083 -9.542097 0
7.233976 -36.851353 -9.704311 0
6.547050 -36.042252 -10.324665 0
11.412683 -34.879299 -8.292912 0
13.403131 -33.706093 -7.447911 0
13.476818 -33.887791 -6.943523 0
10.030934 -34.124317 -8.921842 0
13.440772 -33.464310 -7.163950 0
6.264730 -35.446678 -10.484415 0
9.784867 -34.010967 -9.007419 0
13.370119 -32.930347 -7.421046 0
13.458768 -33.247509 -6.874927 0
13.370285 -33.083790 -7.455416 0
13.423625 -32.960205 -7.103950 0
9.488894 -34.156193 -8.954359 0
13.322967 -32.691845 -7.530062 0
13.327811 -32.565948 -7.417794 0
13.389431 -32.756390 -7.156234 0
5.821541 -33.986378 -11.001224 0
9.129316 -32.932381 -9.290668 0
8.909348 -33.426636 -9.232917 0
8.784636 -33.058033 -9.310094 0
9.408498 -33.329536 -9.190846 0
9.140563 -33.746758 -9.122597 0
13.223866 -32.358540 -7.652223 0
5.719671 -33.070229 -11.159429 0
8.675341 -32.534672 -9.369419 0
9.618387 -32.486839 -9.308369 0
12.674376 -31.272610 -8.307904 0
5.629091 -31.833927 -11.099936 0
9.010839 -32.299347 -9.366769 0
5.604879 -30.505009 -10.893553 0
11.121219 -30.835340 -9.156521 0
-8.935680 -31.582241 -8.895205 0
8.406232 -31.803680 -9.419669 0
9.195040 -31.779083 -9.372111 0
10.026291 -30.546370 -9.265682 0
10.661077 -30.449694 -9.191300 0
11.461006 -30.392403 -8.996873 0
11.869759 -30.188736 -8.752199 0
-9.770906 -30.688066 -9.113923 0
9.195401 -30.967485 -9.350351 0
10.112367 -29.380928 -9.133037 0
10.558139 -29.646236 -9.106923 0
11.126415 -29.750790 -8.999082 0
10.738519 -28.399897 -8.895337 0
-11.202003 -29.036411 -10.140328 0
-11.675757 -28.467882 -10.210794 0
5.596652 -28.972084 -10.522462 0
-12.988205 -26.814333 -9.685543 0
-12.535436 -27.441738 -9.163571 0
6.352585 -27.083849 -12.505174 0
6.525737 -26.929707 -12.826827 0
-13.655227 -25.856176 -9.797897 0
-13.534295 -26.006887 -10.217239 0
-13.264078 -26.420580 -10.132038 0
5.923527 -26.965483 -11.884306 0
5.505429 -27.631811 -11.114655 0
5.622123 -26.815771 -11.424340 0
6.389653 -25.748840 -12.591502 0
-14.393305 -24.780455 -9.215623 0
-14.598597 -24.457689 -9.183396 0
5.401631 -27.553093 -10.589018 0
5.300173 -26.570312 -10.672985 0
5.261580 -26.163378 -10.261189 0
5.394082 -26.591967 -11.015690 0
-14.139353 -20.400530 -13.348599 0
-13.939892 -20.330946 -13.582602 0
6.490124 -25.613281 -12.829460 0
-14.327137 -20.277950 -13.100352 0
-14.290218 -19.861322 -13.035233 0
-13.542980 -20.319429 -14.172230 0
6.276489 -24.759258 -12.383060 0
-15.856481 -21.936682 -9.523861 0
-13.515635 -20.007826 -14.268477 0
6.394475 -23.084444 -12.926192 0
-16.028297 -21.449909 -9.312947 0
-14.581662 -19.549528 -12.600801 0
-13.564351 -19.618879 -14.316283 0
6.264797 -23.398191 -12.362970 0
6.344861 -22.308023 -12.716291 0
-16.634508 -19.837694 -7.991045 0
-15.229392 -18.707998 -11.598658 0
6.245142 -22.230354 -12.228623 0
-16.884768 -18.884779 -7.455328 0
-15.579550 -18.445696 -11.085380 0
6.377470 -20.970407 -12.629240 0
-15.743519 -18.030659 -10.745110 0
6.463537 -19.980562 -12.219329 0
-15.957582 -17.835806 -10.406441 0
6.591053 -19.186272 -12.354587 0
6.605397 -18.967600 -12.599399 0
-16.992853 -18.006020 -7.956637 0
-16.242712 -17.611053 -9.927265 0
6.649821 -18.478281 -12.738853 0
-16.819469 -18.044601 -8.696828 0
-16.711426 -17.478754 -9.012018 0
-16.489128 -17.097734 -9.385321 0
-15.465869 -15.195377 -11.926783 0
6.922488 -16.648878 -12.843617 0
-15.768653 -14.525804 -11.421535 0
-16.082664 -13.825984 -11.067412 0
7.271176 -15.578768 -12.529938 0
7.536317 -14.458881 -12.526728 0
-16.291296 -13.316884 -11.425407 0
-16.575014 -12.760946 -10.459693 0
-16.599663 -12.637608 -11.253352 0
7.819499 -13.901670 -12.153457 0
-17.459507 -10.603665 -10.933509 0
-16.981924 -11.749338 -11.232018 0
-16.914213 -11.976205 -10.571468 0
8.130676 -13.191235 -11.845447 0
8.182088 -12.699688 -12.059321 0
-17.565477 -10.404104 -10.238561 0
-17.289263 -11.113955 -10.207641 0
-17.883255 -9.464330 -10.328397 0
8.261700 -12.219852 -12.180485 0
-18.198822 -8.518562 -9.741711 0
8.862418 -10.812999 -11.809808 0
9.241940 -10.234929 -11.456683 0
8.790462 -11.619649 -11.446720 0
8.541508 -11.608523 -11.965682 0
8.599327 -10.930005 -12.235878 0
-18.574755 -6.161278 -10.080456 0
8.967540 -9.908509 -12.095140 0
9.530169 -8.739498 -11.734323 0
-18.734015 -5.186769 -9.478210 0
9.798545 -7.213852 -11.972534 0
-14.736548 -0.536915 -9.203163 0
-13.889786 -1.767600 -8.643639 0
-13.622935 -1.384610 -9.062769 0
-13.234348 -1.847516 -8.687807 0
10.045141 -5.982862 -12.119696 0
-18.806110 -4.018279 -9.550437 0
-13.363170 -1.175251 -9.264989 0
10.205730 -4.701829 -12.341557 0
-18.773504 -2.796613 -10.199068 0
-15.187090 0.147095 -9.402253 0
-13.029902 -1.117987 -9.268559 0
-12.757404 -2.234113 -8.440008 0
10.198256 -3.636476 -12.642929 0
11.345025 -3.250202 -11.458961 0
12.097357 -3.089584 -10.651099 0
12.199191 0.054948 -11.328806 0
12.099072 -1.417570 -11.119637 0
-18.719587 -1.923009 -10.829694 0
-18.787519 -1.945390 -10.277360 0
-18.593197 -1.668220 -11.440312 0
13.910016 1.301987 -9.447323 0
14.147211 2.822040 -9.354996 0
14.535420 3.691273 -8.867435 0
-18.646366 -0.472687 -11.050344 0
-12.366794 0.693258 -10.314684 0
15.064057 4.537150 -8.046418 0
15.169381 5.211909 -7.886617 0
-18.524185 0.220572 -11.639029 0
15.451796 5.841255 -7.337018 0
16.018486 6.569036 -6.089712 0
-11.884237 3.029195 -11.473481 0
-11.747450 2.083714 -10.672479 0
-11.591393 4.306427 -11.892898 0
-11.379012 4.221624 -11.360257 0
-16.824295 4.416665 -11.692095 0
-17.296824 4.096057 -11.593603 0
-11.501670 8.520583 -11.436368 0
-13.821243 11.628811 -9.910875 0
-13.378969 11.809890 -10.393241 0
-14.016131 12.319997 -9.942307 0
-14.322198 13.326842 -9.900079 0
-14.510738 12.036630 -9.375535 0
-14.744925 12.395381 -9.245403 0
16.388161 8.877358 -5.594748 0
16.287523 9.361112 -5.859975 0
15.589529 11.344703 -7.527068 0
15.124071 11.603562 -8.538589 0
14.183745 13.602908 -9.881021 0
15.011860 13.040595 -8.435050 0
14.401797 13.802149 -9.396494 0
13.991260 14.927610 -9.586838 0
12.535688 17.433994 -10.165665 0
6.067699 21.889297 -13.013856 0
7.034441 21.166098 -12.734108 0
7.636651 21.000259 -12.387117 0
-15.258879 16.800884 -9.107124 0
-15.362617 15.712148 -9.058875 0
-15.669703 15.633534 -8.634018 0
-15.581229 16.647840 -8.610168 0
-14.917111 17.459024 -9.563431 0
5.911283 22.391602 -12.818358 0
8.274861 20.444084 -12.211200 0
9.009209 19.849993 -11.938970 0
11.023872 19.522688 -10.415138 0
-15.053752 17.903938 -9.234558 0
-14.757513 18.333004 -9.661345 0
5.658076 23.675747 -12.129795 0
6.715734 22.991039 -11.795574 0
-9.742955 24.568401 -9.074924 0
-10.250082 24.154343 -9.033189 0
-10.099271 23.770800 -8.378469 0
-9.063851 25.206535 -9.219673 0
5.684654 24.058079 -11.827454 0
6.121949 24.091503 -11.438247 0
-14.436672 19.117849 -9.970477 0
-9.592466 25.057926 -9.659740 0
-10.228735 24.623158 -9.637491 0
5.271837 24.352816 -11.902906 0
-14.085472 20.088400 -10.210267 0
-8.495268 25.400028 -8.434229 0
-9.068091 24.879499 -8.543380 0
4.884627 25.070646 -11.583870 0
-13.707127 20.446083 -10.676236 0
-13.334395 21.012506 -10.989211 0
-8.385180 25.781679 -9.170191 0
-7.759911 26.291264 -9.138468 0
-13.037031 21.515623 -11.220543 0
0.722917 27.008646 -12.964198 0
1.473297 27.089834 -12.148231 0
2.715892 26.526926 -11.802222 0
-12.794262 22.176922 -11.210191 0
-7.136762 26.770321 -8.867111 0
-6.517600 27.200401 -8.256866 0
0.270673 27.499676 -12.470242 0
-4.889992 28.300385 -8.889742 0
-4.777093 28.336893 -7.697234 0
-4.432488 28.465687 -9.355035 0
-12.156797 23.334063 -11.305679 0
-4.127668 28.494797 -9.931279 0
-2.972725 28.710350 -9.760247 0
6.114304 -39.871788 -9.959192 0
5.986128 -39.925636 -9.181447 0
7.714617 -39.312351 -9.713860 0
8.155324 -39.120075 -9.061233 0
8.500997 -38.925564 -8.484724 0
7.966285 -37.932499 -9.233767 0
12.823544 -34.819092 -7.519492 0
13.039984 -34.728146 -7.373447 0
13.199752 -34.606686 -7.143809 0
11.684407 -34.899155 -8.164986 0
11.998907 -34.868732 -7.993133 0
13.350052 -34.489674 -6.797369 0
6.917198 -36.290092 -9.774505 0
6.619234 -36.001690 -10.022887 0
13.464469 -34.202900 -6.562375 0
6.462008 -35.732323 -10.151175 0
13.506533 -33.704884 -6.688888 0
13.505445 -33.925194 -6.257222 0
6.300487 -35.216305 -10.280450 0
13.426292 -32.980217 -6.637779 0
13.484832 -33.565556 -6.260188 0
13.451496 -33.852516 -5.557683 0
13.302235 -32.441055 -7.221133 0
13.386342 -32.723289 -6.938890 0
6.071847 -34.573524 -10.479268 0
8.804394 -33.844387 -9.142753 0
8.616278 -33.460613 -9.253099 0
8.903433 -34.343693 -8.970046 0
13.195025 -31.958349 -7.259047 0
13.194429 -31.887592 -7.077995 0
13.240696 -32.096443 -7.018201 0
13.276026 -32.319462 -6.930881 0
13.159206 -32.006557 -7.522483 0
13.072277 -32.078377 -7.913111 0
5.867705 -33.738640 -10.692616 0
8.543105 -32.960243 -9.339217 0
13.096287 -31.538498 -7.278072 0
13.177167 -31.793676 -6.892751 0
12.961551 -31.557816 -7.849242 0
5.696541 -32.625694 -10.804276 0
8.291505 -32.641884 -9.377662 0
13.013312 -31.094551 -7.298672 0
12.808770 -30.990784 -7.966875 0
12.608892 -30.529554 -8.146268 0
5.626813 -31.635355 -10.768841 0
5.660734 -31.019560 -10.544717 0
8.529823 -30.902315 -9.390418 0
9.552660 -30.103388 -9.267215 0
11.750805 -29.640268 -8.740009 0
12.378179 -29.747549 -8.289485 0
-10.193631 -30.225779 -8.000257 0
5.827129 -30.905664 -10.230964 0
5.766351 -30.542950 -10.299192 0
8.912594 -29.979124 -9.296038 0
9.530229 -29.314854 -9.186734 0
11.358183 -29.105095 -8.863369 0
11.837023 -29.171301 -8.686704 0
12.090364 -29.369259 -8.539534 0
5.699536 -29.988659 -10.419872 0
9.060110 -28.898775 -9.169439 0
10.037480 -28.414110 -9.015960 0
-11.384708 -28.853222 -9.474475 0
10.325842 -27.552805 -8.841725 0
9.936864 -27.344360 -8.864728 0
11.212729 -28.601143 -8.860035 0
-11.876669 -28.275908 -8.986091 0
10.613403 -26.947117 -8.671917 0
11.363710 -28.252396 -8.766315 0
-13.482966 -26.148115 -9.209747 0
6.122146 -26.594234 -12.151969 0
11.206096 -27.970222 -8.754409 0
-13.989665 -25.410334 -8.132950 0
-14.278855 -24.987181 -8.613378 0
6.254485 -25.953861 -12.339392 0
11.227785 -27.431133 -8.625159 0
-14.532863 -24.596247 -8.660538 0
5.452837 -27.756783 -10.306820 0
5.419905 -26.693295 -10.039413 0
5.770874 -26.359230 -11.654565 0
5.924164 -25.959631 -11.851201 0
11.041272 -26.736328 -8.508115 0
-14.764311 -24.185787 -8.812290 0
5.699166 -25.580423 -11.513642 0
10.658946 -25.691050 -8.403432 0
-15.096756 -23.583269 -8.845055 0
5.524531 -25.459488 -11.256627 0
5.395678 -25.859371 -11.064714 0
6.115172 -25.366760 -12.103274 0
11.107560 -25.800306 -8.280584 0
11.590966 -25.699089 -8.026004 0
-15.480871 -22.861847 -8.952312 0
5.187837 -25.240767 -10.387574 0
5.177128 -24.901525 -10.033597 0
5.253928 -25.607136 -10.721253 0
10.499081 -24.118071 -8.109447 0
11.043634 -24.952377 -8.102879 0
-15.649858 -22.503059 -9.280508 0
5.282760 -24.943014 -10.809706 0
5.384393 -24.941925 -11.012923 0
-15.867574 -22.028423 -9.012453 0
-14.114522 -19.627602 -13.261130 0
-13.846175 -19.810307 -13.695426 0
-13.673828 -19.894428 -13.970991 0
5.228708 -24.255001 -10.526432 0
5.362831 -24.052601 -10.839014 0
6.157556 -24.204746 -12.130409 0
11.229878 -24.062307 -7.799806 0
11.181544 -23.279984 -7.673094 0
-16.125368 -21.403416 -8.647360 0
-14.554581 -19.196272 -12.571146 0
-13.811818 -19.430759 -13.827176 0
5.364561 -23.365858 -10.680895 0
6.077240 -23.243555 -11.919708 0
5.181777 -23.893785 -10.175138 0
-16.561424 -20.133247 -7.492424 0
-14.906031 -18.565552 -11.977193 0
-14.276665 -18.202950 -13.254786 0
5.239857 -23.321234 -10.300895 0
5.340690 -22.870848 -10.422227 0
-15.504254 -18.139299 -11.074549 0
-15.299424 -18.089462 -11.316545 0
-14.713438 -17.290918 -12.495478 0
5.154223 -23.780685 -9.904374 0
5.402815 -22.164862 -10.120825 0
6.339756 -21.134926 -12.235500 0
6.223915 -21.576262 -11.938588 0
6.324182 -20.841379 -12.002725 0
-15.734850 -17.510099 -10.586335 0
-16.022734 -17.504230 -10.213184 0
-17.109653 -17.808521 -7.426682 0
-16.146950 -17.155861 -9.927396 0
6.722801 -18.420351 -12.362669 0
-16.960148 -17.470222 -8.338185 0
-17.131718 -17.221191 -7.749210 0
-15.975519 -16.851221 -10.071739 0
-15.655093 -17.003191 -10.552496 0
6.856993 -17.544247 -12.486460 0
-17.038742 -16.780231 -8.152807 0
-16.282768 -16.667479 -9.592554 0
7.172657 -16.345291 -12.274841 0
-16.476221 -16.128199 -9.151309 0
-16.667368 -16.158875 -8.856275 0
-15.487429 -15.233532 -11.548882 0
7.564588 -15.049902 -12.007670 0
-17.168716 -15.725620 -7.666871 0
-16.954998 -16.464056 -8.357300 0
-16.777910 -16.511644 -8.740765 0
-15.964388 -14.161082 -10.829676 0
-16.277060 -13.437294 -10.334872 0
-16.541330 -12.850644 -9.915111 0
7.980733 -13.916631 -11.706033 0
8.042299 -15.227688 -9.712513 0
7.801790 -15.789994 -9.626812 0
7.661036 -15.783511 -9.936033 0
8.103134 -15.720269 -9.307653 0
7.694416 -15.476011 -10.292841 0
8.236024 -14.521933 -10.056256 0
8.223254 -14.082980 -10.605633 0
7.891274 -14.652620 -11.066199 0
8.428445 -13.067924 -11.164474 0
-17.953749 -9.409813 -9.537629 0
-17.749233 -10.025976 -9.232615 0
-17.106876 -11.598937 -9.747799 0
8.408859 -14.681321 -9.608228 0
8.878303 -13.688820 -9.716981 0
8.717130 -13.419816 -10.180687 0
9.377650 -12.426981 -9.917783 0
8.867802 -12.613636 -10.578415 0
8.433097 -12.399296 -11.679744 0
-18.380743 -8.022560 -9.064767 0
-17.401316 -10.889002 -9.664828 0
9.428195 -11.377823 -10.487136 0
9.094023 -11.436125 -10.995692 0
-18.202423 -8.673223 -9.336967 0
9.738088 -9.856404 -10.904206 0
10.193827 -8.168261 -11.105020 0
-13.840981 -2.602617 -7.961275 0
-13.484692 -3.508332 -7.382947 0
-13.260705 -2.753556 -8.021071 0
-13.005384 -3.613392 -7.430300 0
10.317681 -6.799829 -11.506422 0
-14.855555 -1.064919 -8.706265 0
-14.385216 -1.830802 -8.362350 0
-12.526267 -3.085133 -7.889040 0
-12.616055 -4.032004 -7.223706 0
10.581759 -5.579563 -11.633553 0
-12.207185 -2.053194 -8.511267 0
10.804169 -4.248679 -11.802355 0
11.107821 -5.002677 -11.211378 0
-15.545641 1.511491 -10.098101 0
-15.533117 0.125928 -9.128699 0
12.646401 -2.149198 -10.313782 0
12.761120 -1.281265 -10.431036 0
12.651011 -0.523877 -10.732775 0
13.155717 0.374095 -10.292625 0
14.497437 2.183164 -8.734373 0
14.965768 3.144440 -8.055529 0
-18.743015 -1.312079 -10.614158 0
15.167519 4.038892 -7.802516 0
-18.739038 -0.972743 -10.361021 0
-11.918214 0.524946 -9.861603 0
15.855377 4.842111 -6.432305 0
-11.609221 3.346557 -11.324285 0
-11.494807 3.072950 -10.946404 0
-11.369466 2.750758 -10.431959 0
-11.253018 4.106045 -10.861144 0
-11.211761 5.128765 -11.010535 0
-18.235531 2.070169 -12.049645 0
-11.279522 6.254265 -11.058915 0
-17.053875 3.936684 -11.368307 0
-16.881662 3.606174 -11.131181 0
-16.738150 4.100028 -11.458925 0
-17.926844 3.258837 -11.705056 0
-14.404738 8.417262 -7.967762 0
-14.682754 9.751092 -8.335893 0
-14.015141 9.324947 -8.787516 0
-14.248005 9.862256 -8.826771 0
-14.014969 10.503534 -9.310428 0
-14.420756 11.104877 -9.145760 0
-13.533523 11.087271 -9.998105 0
-13.000955 11.533449 -10.654969 0
-15.232795 9.705979 -7.784513 0
-15.051706 11.173112 -8.535661 0
-15.575754 9.977996 -7.565719 0
-15.632061 11.018310 -7.918141 0
-15.427861 12.304484 -8.508188 0
-14.951258 12.987801 -9.171599 0
-15.751158 12.958662 -8.319137 0
-15.238873 13.943729 -9.052481 0
-15.799953 14.157875 -8.425986 0
16.240564 9.952901 -5.909999 0
16.075529 10.844435 -6.373807 0
15.954918 11.555758 -6.614479 0
-15.222251 15.142603 -9.216404 0
15.576921 12.518952 -7.373238 0
16.027822 12.162498 -6.272076 0
14.508381 14.232726 -9.025794 0
15.356372 13.831923 -7.473083 0
14.941503 14.407981 -8.126080 0
15.731884 13.035761 -6.882764 0
13.843532 15.647378 -9.456400 0
14.414797 15.120687 -8.755613 0
13.237982 17.631807 -9.134583 0
13.772511 16.367563 -9.140916 0
14.242710 16.620022 -8.226624 0
14.658220 15.439103 -8.200928 0
-11.498749 21.244137 -7.307523 0
-10.815105 22.573441 -7.787648 0
-11.771553 21.572412 -7.713564 0
6.607550 22.029562 -12.527088 0
7.275142 21.940607 -12.078326 0
-15.898158 15.809596 -8.261810 0
-15.836316 16.368843 -8.233158 0
6.216651 22.681980 -12.404581 0
7.981949 21.371136 -11.890244 0
8.733808 20.880600 -11.569592 0
11.881368 18.535995 -10.236365 0
-12.293256 21.667910 -8.068002 0
-12.510014 20.721037 -7.565682 0
7.828486 22.289064 -11.394073 0
8.941262 21.457314 -11.020954 0
-11.450112 22.339663 -8.085608 0
-11.607948 22.598902 -8.405821 0
-9.909248 23.334202 -7.450842 0
6.167052 23.604399 -11.792461 0
-14.731106 18.967857 -9.460092 0
-10.831740 23.243574 -8.477641 0
-9.559365 24.248688 -8.319843 0
-9.228951 24.412270 -7.969778 0
-9.130753 24.246819 -7.382628 0
-8.981729 24.077276 -6.672650 0
7.203430 23.654793 -10.896566 0
8.228106 22.717257 -10.764190 0
-10.752542 23.895025 -9.122449 0
-8.794221 24.826557 -7.799726 0
-8.423501 25.025543 -7.290141 0
-14.369207 19.864080 -9.737675 0
-10.806653 24.262396 -9.603260 0
-7.844031 25.955326 -8.211271 0
-7.728809 25.850452 -7.417707 0
6.158442 24.652958 -10.941774 0
6.966630 24.761866 -10.163582 0
-13.714206 21.019238 -10.334249 0
-7.164521 26.579496 -8.023302 0
5.533944 25.496899 -10.683084 0
4.892645 25.801100 -10.896730 0
6.242472 25.097235 -10.492001 0
-13.235245 21.637154 -10.824048 0
-10.843388 24.552517 -10.082669 0
-5.820666 27.666864 -7.732251 0
1.835233 27.480022 -11.198696 0
3.771042 25.925894 -11.622517 0
4.300786 25.963152 -11.182536 0
0.974044 27.631695 -11.685646 0
3.704871 26.783968 -10.726655 0
4.452061 26.301069 -10.724891 0
-12.550352 22.814074 -11.087747 0
-4.138243 28.569658 -8.660341 0
-12.141793 23.504812 -10.907728 0
-3.856846 28.605225 -9.433945 0
7.601623 -39.689545 -8.662805 0
7.924696 -39.561874 -8.633780 0
5.246256 -39.901821 -9.358598 0
8.063018 -39.383236 -8.843863 0
4.483694 -39.807518 -9.307377 0
3.746095 -39.654205 -9.271930 0
8.290940 -39.239182 -8.684156 0
3.167859 -39.511486 -8.629093 0
8.169445 -38.338905 -9.096684 0
8.452356 -39.111626 -8.479135 0
2.213967 -39.214725 -9.222049 0
7.685621 -37.409763 -9.385753 0
12.581064 -35.077366 -7.249975 0
12.326717 -34.994663 -7.561334 0
12.822985 -35.039993 -7.017090 0
13.100337 -34.847271 -6.886913 0
1.156849 -38.862034 -8.342599 0
7.154313 -36.458210 -9.487027 0
7.462183 -36.755402 -9.328348 0
8.137670 -37.126884 -8.797777 0
11.640288 -35.200581 -7.805614 0
13.170366 -34.856674 -6.670744 0
13.303142 -34.721481 -6.486741 0
-1.993794 -37.186947 -10.163739 0
-1.077557 -37.778881 -9.233781 0
6.609362 -35.678020 -9.917959 0
11.191087 -35.053764 -8.191843 0
12.072888 -35.252945 -7.385945 0
13.404232 -34.517475 -6.194731 0
-3.041111 -36.549362 -10.108532 0
-4.010657 -35.900639 -9.925572 0
9.923079 -34.707199 -8.660037 0
10.780109 -35.024651 -8.328785 0
13.467916 -34.217911 -5.805059 0
6.599383 -35.155304 -9.851105 0
9.351076 -34.839218 -8.690687 0
13.420566 -34.047188 -5.182724 0
13.397367 -34.312443 -5.040468 0
6.327687 -34.673954 -10.087775 0
6.093905 -34.048161 -10.285925 0
8.483318 -33.883907 -9.157570 0
8.095306 -33.365799 -9.289559 0
8.365726 -33.484547 -9.264246 0
13.237276 -32.119877 -6.743740 0
13.362346 -32.695789 -6.636368 0
6.048096 -33.330269 -10.270522 0
8.257686 -33.170464 -9.321944 0
8.405741 -33.153214 -9.320718 0
13.172247 -31.761288 -6.637931 0
13.169228 -31.849594 -6.331104 0
13.207582 -32.034473 -6.470939 0
13.241993 -32.322800 -6.229042 0
13.310792 -32.491070 -6.548445 0
5.836318 -32.917290 -10.492876 0
7.934354 -32.611107 -9.409223 0
13.139235 -31.589361 -6.466105 0
13.124115 -31.677528 -6.094874 0
13.124098 -31.471352 -6.801844 0
12.934364 -31.074732 -7.682774 0
5.786060 -32.065624 -10.449127 0
12.871505 -30.591259 -7.532535 0
12.979149 -30.762941 -7.200839 0
-7.810901 -32.713943 -9.209698 0
5.800286 -31.403946 -10.306137 0
6.101476 -31.956696 -10.092515 0
6.008158 -31.572447 -10.131639 0
6.034174 -31.075003 -10.060645 0
7.847343 -31.262753 -9.468702 0
6.062392 -30.375546 -10.010271 0
7.497900 -30.907757 -9.505820 0
7.047738 -30.947397 -9.596795 0
7.652582 -30.450668 -9.449680 0
8.239400 -30.276960 -9.370343 0
8.433488 -29.208809 -9.245904 0
9.544221 -28.616083 -9.101475 0
11.832629 -28.809427 -8.665534 0
11.659334 -28.693317 -8.747528 0
12.187615 -28.825161 -8.422069 0
9.538281 -27.844831 -8.986760 0
9.092966 -27.972408 -9.042012 0
11.503803 -28.573526 -8.786002 0
11.851193 -28.248089 -8.578368 0
9.655479 -26.554529 -8.757990 0
10.156164 -26.316111 -8.642301 0
5.968501 -29.302511 -9.998316 0
5.768596 -28.283609 -9.973346 0
11.569492 -27.795870 -8.619786 0
-13.645922 -25.924088 -8.575861 0
-13.081226 -26.721844 -8.625500 0
5.573110 -27.535992 -10.013199 0
5.748609 -27.286364 -9.730141 0
9.714437 -25.172771 -8.491598 0
11.612592 -27.269514 -8.482996 0
11.901891 -27.551048 -8.416343 0
12.099549 -27.791006 -8.358447 0
12.191215 -28.234537 -8.364868 0
5.723854 -26.119835 -9.533499 0
11.519209 -26.663988 -8.340858 0
11.878295 -27.005346 -8.280428 0
5.332932 -25.565859 -9.822387 0
5.857452 -24.997631 -11.699624 0
10.248922 -25.281008 -8.417966 0
11.914256 -26.456530 -8.081793 0
-14.872780 -24.019897 -8.272711 0
5.632014 -24.519318 -11.335618 0
5.764324 -24.477184 -11.521540 0
5.976151 -25.204203 -11.883020 0
5.488726 -24.276598 -11.089897 0
5.907825 -24.002810 -11.693184 0
6.020482 -24.424175 -11.901525 0
11.493031 -24.737503 -7.837808 0
11.887785 -24.621189 -7.544154 0
12.006108 -25.104073 -7.598497 0
12.127273 -25.513332 -7.609624 0
-15.818294 -22.207932 -8.481688 0
5.211005 -24.137407 -9.675050 0
10.379965 -23.027382 -7.979585 0
10.153090 -22.298174 -7.975437 0
10.623088 -21.858414 -7.763644 0
11.081368 -22.293114 -7.588770 0
11.754686 -24.033703 -7.478326 0
11.609374 -22.534559 -7.297779 0
11.759941 -23.299816 -7.310034 0
-14.520731 -18.693069 -12.578922 0
-14.167049 -18.909107 -13.239750 0
6.053224 -22.239538 -11.690310 0
12.169686 -22.414206 -6.830694 0
-14.553370 -18.070034 -12.586315 0
5.477885 -22.520853 -10.631616 0
5.582759 -23.011950 -10.989591 0
11.818867 -21.579182 -7.031142 0
12.458857 -21.077841 -6.402109 0
-15.136431 -17.872747 -11.489880 0
5.555751 -21.689589 -10.338315 0
6.237765 -20.838434 -11.692878 0
10.510121 -20.599894 -7.693166 0
-15.434532 -17.529593 -10.984635 0
5.247250 -22.794731 -9.951277 0
5.229391 -22.833574 -9.726120 0
11.000880 -21.111336 -7.521048 0
11.552467 -20.658373 -7.171043 0
12.056236 -20.520014 -6.779094 0
-15.312744 -17.219090 -11.109998 0
5.896657 -20.242636 -10.012050 0
6.488809 -19.558832 -11.755427 0
6.755169 -18.379526 -11.919613 0
11.240294 -20.078321 -7.313426 0
-17.277784 -16.932148 -7.102799 0
-15.895866 -16.462315 -10.076936 0
-14.997831 -16.555632 -12.043686 0
-15.251020 -15.919393 -11.655299 0
-17.211432 -16.506306 -7.597666 0
-16.197874 -16.200869 -9.581112 0
-16.064106 -15.867664 -9.697038 0
5.485058 -21.489916 -9.812010 0
5.345733 -21.905384 -9.605989 0
5.594843 -21.299137 -9.981628 0
7.024912 -17.172359 -12.024312 0
-17.326719 -16.012640 -7.230263 0
-17.411669 -16.152542 -6.909455 0
-16.408367 -15.500582 -9.084466 0
-15.590266 -15.123736 -11.086135 0
7.317859 -16.133984 -11.771921 0
-16.722239 -15.360271 -8.514913 0
-16.874023 -15.597510 -8.319279 0
-15.821604 -14.660914 -10.568112 0
7.601931 -15.293370 -11.498276 0
-17.341066 -15.342597 -7.105011 0
-17.005049 -15.709484 -8.084278 0
-17.091434 -14.692708 -7.572053 0
-16.064474 -14.028493 -10.248292 0
5.588506 -20.955198 -9.561650 0
-17.296736 -14.863107 -7.063287 0
-16.256868 -13.509322 -9.984449 0
-17.445213 -14.156831 -6.285880 0
-16.380857 -13.197582 -9.932128 0
7.502574 -16.406778 -9.655791 0
7.063407 -17.124548 -9.974138 0
7.256466 -16.451233 -10.399648 0
7.622735 -15.480129 -10.735258 0
7.912706 -14.358010 -11.460104 0
8.764559 -14.483067 -9.322082 0
8.935460 -14.936419 -8.931457 0
10.120361 -12.031886 -9.302035 0
9.441591 -13.398120 -9.266847 0
-17.492207 -10.747865 -8.859896 0
-17.451052 -10.795962 -9.327278 0
9.810653 -11.750699 -9.771583 0
9.966656 -10.794653 -10.106360 0
-18.211191 -8.710343 -8.971283 0
10.388329 -9.307796 -10.344742 0
-18.647287 -6.308520 -9.219151 0
-18.528261 -7.441660 -8.467989 0
10.858430 -7.932673 -10.405057 0
-18.756430 -5.564904 -8.644267 0
10.864444 -6.710852 -10.891154 0
11.629439 -6.914864 -9.924341 0
12.240252 -5.835205 -9.625167 0
12.492578 -6.650005 -9.051746 0
-14.445127 -2.919098 -7.404361 0
-13.905950 -3.601741 -7.127522 0
-13.414660 -4.648815 -6.473921 0
-12.854777 -4.760756 -6.597086 0
-12.307937 -4.695516 -6.764476 0
-12.273657 -3.902893 -7.356981 0
11.325520 -5.904133 -10.651974 0
-14.765215 -2.076879 -7.934948 0
11.641335 -4.710049 -10.684049 0
12.084670 -4.927263 -10.104819 0
12.753671 -4.668664 -9.408456 0
-18.805668 -4.473317 -8.482974 0
-15.005769 -1.404918 -8.341261 0
-12.146324 -3.245042 -7.789377 0
13.269831 -1.463719 -9.735744 0
13.094613 -2.844336 -9.546930 0
-18.837969 -3.104396 -9.287356 0
-15.217784 -0.703118 -8.740574 0
13.173576 -0.577804 -10.096799 0
13.839204 -1.277248 -8.997894 0
13.727104 -0.126106 -9.441244 0
14.412113 0.247166 -8.504772 0
-11.865726 -1.060898 -8.926764 0
14.847355 1.543464 -8.042090 0
-18.755356 -1.685205 -9.716442 0
15.333170 3.044725 -7.374474 0
-18.571049 0.332084 -11.073868 0
-15.962525 1.734494 -9.988197 0
-11.528811 1.543294 -10.008023 0
-11.238861 1.653288 -9.467109 0
-11.429008 0.694690 -9.353434 0
-16.112656 2.620543 -10.553665 0
-11.208714 3.113878 -10.045383 0
-11.189621 4.195055 -10.462001 0
-11.198937 4.987889 -10.620955 0
-17.597288 2.952953 -10.916909 0
-17.259626 3.406147 -11.053065 0
-11.447995 7.386305 -11.061818 0
-13.511889 9.367697 -9.287642 0
-13.735538 8.730010 -8.767287 0
-14.910852 8.259123 -7.405075 0
-13.382532 10.335472 -9.839695 0
-13.075246 9.579248 -9.794852 0
-12.057065 9.171037 -10.760854 0
-12.276467 10.003598 -10.837420 0
-11.883891 9.970104 -11.354358 0
-11.749617 8.945016 -11.132363 0
-16.026157 8.040355 -6.197627 0
-15.664313 8.395334 -6.705317 0
-15.666772 5.874797 -5.207646 0
-15.373235 7.493980 -6.518256 0
-15.196656 8.742559 -7.373003 0
-16.418545 8.895993 -6.312731 0
-16.060516 9.848064 -7.030910 0
-16.814150 10.554995 -6.560428 0
-16.771412 11.682341 -6.868229 0
-16.407404 11.016550 -7.119640 0
-15.962775 11.562368 -7.747380 0
-16.226292 12.467754 -7.681880 0
-16.402996 13.202718 -7.569795 0
16.396563 10.560846 -5.343042 0
-16.990147 12.383679 -6.656363 0
-17.134506 11.648309 -6.356744 0
-16.748608 12.583961 -7.079141 0
-16.861446 12.737945 -6.957987 0
-12.177270 19.768702 -6.803256 0
-11.825569 19.240396 -6.159449 0
-11.556384 20.501911 -6.827719 0
-11.286757 20.500647 -6.565720 0
-16.241856 14.150678 -7.836369 0
14.975254 15.354472 -7.594071 0
15.829395 13.574640 -6.366071 0
-16.009291 14.936903 -8.172219 0
-10.792545 21.876404 -7.132720 0
-10.896523 21.055794 -6.552035 0
15.405917 14.767110 -6.944330 0
-16.146376 15.370173 -7.847432 0
-12.717277 19.746546 -7.093600 0
-12.898228 18.834068 -6.675099 0
-12.139108 20.596603 -7.300601 0
-10.511997 21.704483 -6.587340 0
13.613533 18.288086 -8.199343 0
-16.028542 16.016073 -7.847265 0
-10.140133 22.490200 -6.810538 0
10.606872 20.608381 -10.082548 0
10.083934 20.904621 -10.374531 0
11.916784 19.150187 -9.808096 0
12.510107 18.331816 -9.667789 0
-15.707482 16.892275 -8.197416 0
-9.519504 23.228773 -6.535048 0
9.620561 21.517677 -10.372290 0
10.261042 21.762064 -9.586539 0
-15.305387 17.737684 -8.703203 0
8.966878 22.243479 -10.476260 0
9.834522 22.668161 -9.287326 0
-14.999117 18.523167 -9.081809 0
-11.649907 22.894512 -8.677335 0
-12.053560 22.514132 -8.590134 0
8.746237 23.059816 -10.058181 0
-14.772113 19.332344 -8.989762 0
-11.663713 23.143129 -8.914798 0
-11.958936 23.160608 -9.131291 0
-11.225058 23.291355 -8.794066 0
8.079824 23.539892 -10.261259 0
-11.280620 23.641489 -9.183847 0
-11.399690 23.798326 -9.435986 0
-8.083701 25.254255 -6.806127 0
7.765960 24.270905 -9.908122 0
-11.138909 24.177235 -9.722397 0
4.980871 26.392332 -10.197782 0
6.294309 25.456942 -10.103490 0
-13.005220 22.293709 -10.657994 0
0.260317 27.991817 -11.512954 0
1.016905 28.031219 -10.880924 0
5.828654 25.978291 -9.962249 0
-3.732656 28.774593 -7.780962 0
-3.624539 28.717192 -8.745953 0
2.613644 27.386961 -10.729398 0
3.214240 27.307299 -10.436345 0
-11.083237 24.600426 -10.617212 0
6.676068 -39.842556 -9.580918 0
7.947291 -39.629829 -8.189348 0
8.241909 -39.510384 -7.835655 0
6.514857 -39.909313 -9.033484 0
8.241020 -39.448135 -8.238227 0
4.483361 -39.826908 -8.493391 0
5.203583 -39.919979 -8.519266 0
8.455359 -39.238297 -8.247105 0
3.913580 -39.714058 -8.477358 0
8.550496 -38.490517 -8.462282 0
8.854802 -38.701176 -7.803610 0
8.684850 -39.029736 -7.938828 0
8.536043 -38.117828 -8.448391 0
12.367736 -35.499821 -6.543739 0
0.007793 -38.345982 -9.026271 0
7.327996 -36.455410 -9.308652 0
7.659354 -36.573738 -9.073798 0
12.850348 -35.168846 -6.602781 0
13.088687 -35.019543 -6.423671 0
13.215359 -34.888039 -6.232281 0
-2.301687 -37.105049 -9.192668 0
6.893618 -35.721619 -9.615542 0
7.058444 -36.185028 -9.509350 0
11.047021 -35.354309 -7.918271 0
11.855072 -35.538170 -7.129436 0
13.242572 -34.866264 -5.953294 0
13.382326 -34.595890 -5.607892 0
-3.383451 -36.423534 -9.049422 0
10.358074 -35.304928 -8.182734 0
9.844627 -35.139126 -8.432960 0
11.494349 -35.445869 -7.581529 0
-4.481199 -35.630981 -9.011543 0
9.182263 -35.250172 -8.536481 0
8.626743 -34.847988 -8.841041 0
-5.607338 -34.747631 -8.595629 0
6.723036 -34.501316 -9.717507 0
8.241424 -34.139977 -9.116591 0
13.407434 -33.590229 -5.396667 0
13.252294 -33.841599 -4.413393 0
6.380276 -34.157372 -9.965245 0
7.744357 -33.391331 -9.336315 0
13.455454 -33.223656 -6.339756 0
13.432080 -33.325016 -5.866136 0
6.276479 -33.609058 -10.034550 0
13.165051 -32.042912 -5.980755 0
13.324265 -32.641113 -6.241186 0
13.359871 -32.951641 -5.949917 0
6.058342 -32.611217 -10.183448 0
6.446211 -32.894566 -9.907414 0
7.463135 -32.212326 -9.516199 0
13.044047 -31.340078 -5.685675 0
12.991671 -31.166279 -5.411322 0
13.004866 -31.581573 -5.260194 0
13.080331 -31.822983 -5.578621 0
13.079996 -31.365877 -5.983337 0
-6.939570 -33.590424 -8.497838 0
6.372466 -32.141563 -9.917252 0
13.092609 -31.267698 -6.363883 0
13.063807 -31.073509 -6.744720 0
13.029200 -30.773102 -5.993944 0
12.938349 -30.889595 -5.090267 0
13.009888 -30.577402 -6.702496 0
6.439361 -31.193377 -9.839331 0
6.817358 -32.026310 -9.707953 0
12.965658 -30.608307 -5.299318 0
12.990556 -30.321125 -5.469004 0
13.032642 -29.997759 -6.058300 0
12.737174 -30.098219 -7.755077 0
12.724692 -29.562319 -7.773990 0
5.870251 -29.910065 -10.132442 0
6.449489 -30.054787 -9.744084 0
6.864886 -29.636625 -9.528425 0
7.373981 -29.810581 -9.430734 0
7.910378 -29.721769 -9.350636 0
6.390831 -28.732925 -9.590043 0
7.332632 -28.853937 -9.325682 0
7.866656 -28.897686 -9.258305 0
8.711146 -28.341208 -9.117233 0
6.022183 -28.410784 -9.746778 0
8.319892 -27.951345 -9.085453 0
8.848956 -27.362442 -8.961709 0
9.275659 -27.153639 -8.899686 0
9.198420 -26.196432 -8.740307 0
-13.466768 -26.153725 -7.667822 0
-12.381350 -27.653610 -8.376092 0
-12.788704 -27.123426 -8.045288 0
6.056011 -27.319372 -9.523742 0
8.896899 -25.253756 -8.614770 0
12.285992 -27.807947 -8.213352 0
-14.480635 -24.648981 -7.883911 0
-13.041489 -26.759615 -7.670284 0
12.247676 -27.198452 -8.058796 0
5.493999 -24.960470 -9.527804 0
12.241330 -26.599863 -7.888735 0
12.173197 -26.069117 -7.745189 0
5.621093 -23.729456 -11.216785 0
5.821207 -23.322428 -11.467754 0
9.611145 -23.767895 -8.283777 0
12.373789 -25.694103 -7.445814 0
-15.478105 -22.908594 -8.086905 0
5.558103 -24.230659 -9.268312 0
5.504398 -24.040071 -9.362337 0
5.551744 -23.090240 -9.190484 0
5.519232 -23.722464 -9.055005 0
12.321400 -25.020603 -7.285319 0
-15.864742 -22.138428 -7.913779 0
5.417136 -23.935219 -9.464486 0
12.237312 -24.531828 -7.223088 0
-16.091686 -21.595722 -8.136879 0
5.421359 -23.198330 -9.429263 0
12.282084 -23.732338 -6.935324 0
-16.320671 -20.919235 -8.022003 0
5.829444 -22.468410 -11.306257 0
-14.903858 -17.831324 -11.879085 0
5.991630 -21.528469 -11.342506 0
-14.890786 -17.333302 -11.954827 0
5.391240 -22.587240 -9.509109 0
-15.099991 -16.609432 -11.646517 0
6.301586 -20.184868 -11.514565 0
6.124034 -20.606787 -11.257152 0
-17.128428 -17.930281 -6.913511 0
-15.256486 -16.800642 -11.203814 0
6.380330 -19.620981 -11.381615 0
6.237710 -19.852261 -11.120638 0
-17.258684 -17.336111 -6.793809 0
-15.629818 -16.485365 -10.491963 0
5.761080 -20.854431 -10.363751 0
6.627069 -18.679596 -11.450836 0
-15.680326 -15.908435 -10.366918 0
-15.408854 -16.084311 -10.963286 0
6.928018 -17.574043 -11.377503 0
11.845962 -18.771259 -6.874573 0
11.999015 -19.517767 -6.788279 0
12.303682 -19.383368 -6.520298 0
-17.392828 -16.586384 -6.526880 0
-17.437843 -16.240084 -6.641184 0
-15.894280 -15.820260 -9.957860 0
-15.599474 -15.348637 -10.752248 0
-15.365956 -15.837680 -11.228149 0
7.080733 -17.085272 -11.636859 0
-17.496563 -15.723199 -6.491811 0
-16.226267 -15.101444 -9.330935 0
-17.458284 -15.665563 -6.781395 0
5.885143 -20.130280 -9.680742 0
7.370513 -16.118464 -11.220201 0
7.075721 -16.968163 -11.061493 0
-17.498875 -15.204555 -6.361887 0
-17.519991 -15.376019 -6.140659 0
-17.434019 -15.360859 -6.808930 0
-16.682924 -14.788040 -8.449830 0
-15.984294 -14.453339 -10.060224 0
-16.170876 -14.042576 -9.675723 0
5.466991 -21.439093 -9.424318 0
5.867145 -20.318972 -9.302964 0
6.117365 -19.501215 -9.495568 0
6.517184 -18.572363 -9.704505 0
7.174965 -16.625797 -10.753140 0
-17.443443 -14.821613 -6.468067 0
-16.234928 -13.655463 -9.783656 0
6.381821 -19.039097 -9.307617 0
6.951054 -17.903543 -9.312577 0
7.276611 -17.112915 -9.482746 0
-16.466394 -13.092867 -9.531428 0
-17.351795 -13.821021 -6.732980 0
-16.676699 -12.618827 -9.372314 0
-16.808432 -12.307969 -9.514838 0
10.045072 -13.476244 -8.695559 0
10.570132 -10.369337 -9.631103 0
10.831051 -11.342164 -8.932949 0
10.873950 -10.617778 -9.205068 0
-17.199116 -11.509673 -8.867031 0
11.244153 -10.135323 -9.048988 0
-18.361322 -8.213654 -8.600403 0
-18.142321 -8.958016 -8.495892 0
-17.767397 -10.053390 -8.628284 0
11.080867 -8.836546 -9.761940 0
11.659118 -8.716264 -9.195901 0
11.743877 -10.091111 -8.567492 0
-18.665791 -6.525227 -8.164533 0
-18.416372 -8.034878 -8.143147 0
-18.019541 -9.395947 -8.086694 0
12.222687 -9.173157 -8.423684 0
-18.551954 -7.428724 -7.697374 0
-18.400297 -8.122514 -7.638372 0
12.148169 -7.849141 -9.005229 0
12.763855 -8.099831 -8.221437 0
-14.062621 -4.288054 -6.458979 0
-12.467194 -5.389518 -6.201954 0
-11.902500 -5.371597 -6.263096 0
13.126793 -6.628048 -8.318362 0
-14.338733 -3.694834 -6.812686 0
-11.879400 -4.284554 -7.040979 0
13.376515 -4.865860 -8.594244 0
-15.152286 -1.725050 -7.963099 0
-11.878460 -3.139604 -7.792363 0
13.446998 -3.659267 -8.870985 0
13.933019 -2.377672 -8.578314 0
-15.414498 -0.957535 -8.389911 0
14.474802 -0.880882 -8.162230 0
15.232590 0.254769 -7.169643 0
-15.928823 0.171607 -8.880749 0
-15.662821 -0.705076 -8.398784 0
-11.684535 -2.499501 -8.059479 0
15.462562 2.292033 -7.050004 0
-11.385424 -2.209191 -7.990704 0
15.835860 2.122730 -6.356048 0
-16.335262 0.401896 -8.846189 0
-11.428638 -1.201247 -8.511434 0
-11.159482 -1.787666 -7.946776 0
16.084431 3.435143 -6.042473 0
-11.170900 -0.870197 -8.285902 0
16.234261 4.226852 -5.791982 0
-11.501269 -0.229085 -8.998641 0
-18.658218 -0.493686 -10.235994 0
-11.120761 0.107664 -8.430598 0
-16.426155 1.677723 -9.778869 0
-11.138631 2.443429 -9.304665 0
-11.223542 4.181084 -9.918077 0
-18.341742 1.535849 -11.011301 0
-17.183176 2.715260 -10.564283 0
-16.484619 2.910697 -10.685455 0
-16.691225 3.393112 -10.991930 0
-13.770250 6.648644 -7.578710 0
-13.324407 7.259907 -8.361074 0
-13.316505 5.638306 -7.393327 0
-11.416684 5.365369 -10.013833 0
-11.467756 6.386453 -10.486516 0
-14.345257 6.938504 -7.209615 0
-13.905492 7.849430 -8.137364 0
-11.738551 6.815083 -10.149008 0
-14.783681 6.120843 -6.297928 0
-15.050772 6.908498 -6.511450 0
-14.689441 7.592659 -7.268913 0
-13.422197 8.437137 -8.905178 0
-13.052463 8.490163 -9.286520 0
-12.880306 6.746919 -8.535102 0
-12.791780 7.962614 -9.289405 0
-12.429537 7.566458 -9.509967 0
-12.056095 7.142111 -9.792240 0
-12.049893 8.187304 -10.323183 0
-11.729369 7.827428 -10.668143 0
-12.679224 9.333110 -10.078297 0
-12.384675 8.704228 -10.122481 0
-16.408321 7.218572 -5.512477 0
-16.569014 7.002462 -5.246897 0
-16.620783 7.518403 -5.513387 0
-16.121603 7.079365 -5.619157 0
-16.248013 6.475327 -5.152047 0
-16.440487 8.004567 -5.881756 0
-16.729885 7.886381 -5.586157 0
-17.014341 9.550341 -6.002686 0
-17.294409 8.998858 -5.489933 0
-17.306164 9.374553 -5.630666 0
-17.162628 8.585748 -5.428289 0
-16.866285 8.415352 -5.639929 0
-17.313925 9.748219 -5.688764 0
-16.608522 9.736569 -6.488615 0
-17.137356 10.476581 -6.112708 0
-17.308708 10.818946 -5.867581 0
-13.180615 17.699257 -6.178749 0
-13.824012 17.120390 -6.140090 0
-13.557721 16.692322 -5.793399 0
-12.722603 17.636248 -5.871515 0
-12.667262 16.744476 -5.347812 0
-12.091160 18.035278 -5.635064 0
-17.201212 12.056713 -6.270271 0
-12.331611 18.813334 -6.321305 0
-11.206820 19.331507 -5.515311 0
-11.818829 18.024035 -5.396162 0
-11.633121 18.071098 -5.240860 0
-12.690889 18.531328 -6.395208 0
-11.341398 18.253469 -5.018970 0
-16.732107 13.196302 -7.106857 0
-11.132074 20.141943 -6.060840 0
16.226700 12.283756 -5.577114 0
-16.568716 14.006900 -7.231780 0
-13.347493 17.929504 -6.392459 0
-13.462848 18.116117 -6.537598 0
-10.555683 20.655010 -5.637885 0
-10.263937 20.484198 -4.982763 0
-16.307974 14.727499 -7.652826 0
-13.320999 18.761667 -6.817048 0
-10.655057 21.027170 -6.163629 0
14.628583 16.989897 -7.402020 0
14.206388 17.501125 -7.858534 0
15.086856 16.207426 -6.852167 0
-13.265948 19.235617 -7.044724 0
-10.168692 21.740395 -6.043427 0
-9.886942 21.594976 -5.318945 0
14.103920 18.151247 -7.635455 0
14.465614 17.679558 -7.335829 0
-13.164359 19.786489 -7.301270 0
-9.868081 22.502903 -6.333677 0
-9.588637 22.580320 -5.856451 0
-9.366177 22.513214 -5.260221 0
11.745350 19.887339 -9.465243 0
12.492238 19.170328 -9.104365 0
13.938330 18.785507 -7.391104 0
14.372568 18.254187 -7.072977 0
-13.032685 20.523788 -7.665904 0
-8.935367 23.595818 -5.727601 0
11.297017 20.748163 -9.286344 0
10.841257 21.623480 -9.091374 0
12.028919 20.513216 -8.640027 0
12.894495 19.467081 -8.345325 0
13.457235 19.653275 -7.411747 0
-13.025512 20.998371 -7.941248 0
-8.254788 24.688704 -5.890209 0
9.337771 22.532871 -9.915306 0
10.467859 22.729488 -8.541558 0
11.374484 22.006216 -8.126035 0
12.216748 21.213230 -7.796408 0
12.856893 20.453897 -7.623619 0
-12.513590 22.256401 -8.613779 0
9.283250 23.278124 -9.348903 0
8.697227 23.795027 -9.470615 0
-14.241949 20.425196 -9.627885 0
8.455274 24.394096 -9.150697 0
-13.862014 21.137604 -9.980643 0
-11.527131 23.911219 -9.700910 0
-7.161352 26.458023 -7.454662 0
-6.503475 27.061066 -7.378312 0
7.555354 25.147736 -9.267222 0
-13.472387 21.807734 -10.169986 0
-11.114500 24.477757 -10.251219 0
6.699644 25.728514 -9.455473 0
4.588084 27.073971 -9.695961 0
5.856350 26.489269 -9.358642 0
-3.992956 28.819790 -6.068000 0
0.133844 28.464785 -10.469644 0
1.723992 28.229090 -9.988214 0
3.319064 27.675201 -9.829085 0
-12.972045 22.617979 -10.274641 0
-12.443083 23.336756 -10.349411 0
-11.870868 23.916697 -10.651598 0
-11.566367 24.223862 -10.557055 0
-2.943052 28.926767 -8.479819 0
-2.079765 29.008142 -8.856123 0
6.957137 -39.853313 -8.787889 0
5.898046 -39.949852 -8.458696 0
6.833399 -39.882576 -7.922246 0
5.048590 -39.893589 -7.830623 0
4.288198 -39.757103 -7.587832 0
8.568601 -39.276070 -7.686745 0
8.897744 -38.982384 -7.362750 0
2.305269 -39.267174 -8.191743 0
8.198496 -37.677452 -8.812454 0
8.948756 -38.350971 -7.781413 0
9.376360 -38.405800 -6.915536 0
0.095508 -38.420574 -8.113122 0
-1.643965 -37.542210 -8.314569 0
-0.639699 -38.080246 -7.560801 0
7.296513 -36.117878 -9.291291 0
12.883083 -35.254734 -6.105091 0
13.113299 -35.097767 -5.677064 0
13.292843 -34.878529 -5.415306 0
-2.670495 -36.942902 -8.147665 0
-3.743172 -36.227512 -7.985147 0
7.218032 -35.675972 -9.337207 0
10.804556 -35.635986 -7.718824 0
11.358042 -35.652908 -7.370602 0
13.353115 -34.717010 -5.065948 0
-4.623662 -35.572666 -8.096551 0
9.747848 -35.575375 -8.178459 0
10.389442 -35.921059 -7.634076 0
6.979886 -35.121033 -9.526137 0
7.842384 -34.387615 -9.167085 0
13.339308 -34.557346 -4.512301 0
-4.475112 -35.692589 -6.903881 0
-5.440159 -34.941090 -7.158603 0
6.606891 -33.654972 -9.790360 0
6.956886 -33.876514 -9.586307 0
7.263643 -34.516296 -9.395582 0
7.351871 -33.546150 -9.438055 0
13.263156 -32.568390 -5.870531 0
13.338153 -33.229939 -5.354857 0
6.944900 -32.963745 -9.644940 0
13.134359 -32.269318 -5.465015 0
13.219956 -32.658840 -5.453025 0
13.239881 -32.924652 -5.217310 0
-6.204985 -34.297249 -7.662323 0
12.919913 -31.372343 -4.852455 0
12.968542 -31.958004 -4.840646 0
13.063807 -32.538624 -4.813317 0
12.833099 -30.945543 -4.460540 0
12.882033 -30.378355 -4.581731 0
12.979892 -29.932934 -5.056612 0
