#!ascii version written be Caret
18434 33165
8477 8481 8478 0
8478 8481 8482 0
7977 8479 8482 0
8479 8478 8482 0
8229 8479 7977 0
8480 8229 8230 0
8228 8480 8230 0
8483 8484 8235 0
8234 8484 8483 0
8481 8234 8231 0
8232 8481 8231 0
8482 8481 8232 0
7977 8482 8232 0
7979 8485 7715 0
8483 8235 6969 0
8233 8483 6969 0
8234 8483 8233 0
8486 7458 8485 0
8485 7458 7715 0
7458 8486 7721 0
8237 8487 8238 0
8239 8488 8489 0
8489 8490 8491 0
8488 8490 8489 0
8236 7983 8237 0
8237 7719 8236 0
8239 8489 8240 0
8240 8489 8491 0
8240 8491 8492 0
8237 7983 8493 0
8494 8240 8492 0
7985 8240 8494 0
8494 8243 7985 0
8495 7989 7988 0
8495 7988 7721 0
8495 8496 7989 0
8497 8242 7987 0
8496 8245 7989 0
8498 7987 8244 0
8498 8499 7987 0
8499 8497 7987 0
7734 8248 8498 0
8248 8500 8498 0
8244 7734 8498 0
8501 8502 8503 0
8502 8500 8247 0
8247 8500 8248 0
8504 8249 8505 0
8505 8249 8246 0
8501 8503 8506 0
8502 8506 8503 0
8250 8507 7992 0
8507 8508 7992 0
8504 8509 8251 0
8249 8504 8251 0
8506 8509 8504 0
8502 8510 8506 0
8510 8511 8506 0
8247 8252 8510 0
8502 8247 8510 0
8508 7993 7992 0
8254 7993 8508 0
8251 8509 8253 0
8256 8253 8509 0
8256 8509 8512 0
8506 8513 8509 0
8513 8512 8509 0
8259 8513 8511 0
8511 8513 8506 0
8257 8259 8511 0
8510 8257 8511 0
8252 8257 8510 0
8513 8256 8512 0
8258 8256 8513 0
8259 8258 8513 0
8254 8514 7234 0
7234 8514 8003 0
8515 8003 8514 0
8003 8515 8015 0
8015 8515 8516 0
8015 8522 8267 0
8019 8524 8271 0
8271 8524 8525 0
8525 8272 8271 0
8028 8531 8030 0
8032 8030 8531 0
8279 8032 8531 0
7516 8535 7269 0
8536 7022 7764 0
7022 8536 8033 0
8281 8538 8283 0
8538 8285 8283 0
8284 8288 8537 0
8285 8538 8539 0
8285 8539 8540 0
8285 8540 8289 0
8542 8039 8541 0
8288 8543 8537 0
8039 8542 8290 0
8042 8290 8543 0
8290 8544 8543 0
8543 8288 8042 0
8291 7777 8545 0
8546 8292 8047 0
8293 8547 8048 0
8048 8547 8548 0
8545 8293 8291 0
8547 8293 8545 0
8546 8052 8549 0
8546 8047 8052 0
8050 8049 8294 0
8051 8550 8294 0
8548 8051 8048 0
8550 8051 8548 0
8052 8054 8549 0
8054 8296 8549 0
8549 8296 8297 0
8551 8549 8297 0
8552 8295 8050 0
8553 8552 8050 0
8297 8056 8551 0
8295 8554 8298 0
8554 8555 8298 0
8552 8554 8295 0
8301 8556 8557 0
8301 8300 8556 0
8557 8558 8559 0
8556 8558 8557 0
8559 8558 8560 0
8558 8561 8560 0
8056 8055 8303 0
8555 8304 8298 0
8562 8304 8555 0
8314 8563 8061 0
8061 8563 8305 0
8301 8557 8308 0
8308 8557 8559 0
8564 8559 8560 0
8561 8564 8560 0
8562 8311 8304 0
8310 8311 8562 0
8308 8565 8307 0
8566 8059 8313 0
8566 8313 8058 0
8310 8567 8058 0
8567 8566 8058 0
8307 8565 8317 0
8323 8568 8318 0
7062 8067 8312 0
8312 8067 8569 0
8570 8571 8059 0
8566 8570 8059 0
8317 8572 8316 0
8318 8568 8573 0
8318 8573 8319 0
8574 7815 8320 0
8574 8320 8321 0
8571 8321 8059 0
8574 8321 8571 0
7801 8073 8575 0
8073 8576 8575 0
8577 8063 7801 0
8575 8577 7801 0
8322 8578 8579 0
8572 8322 8316 0
8578 8322 8572 0
8580 8069 8327 0
8323 8069 8580 0
8324 8319 8581 0
8569 8067 8324 0
8581 8569 8324 0
8574 8582 7815 0
8325 8322 8583 0
8322 8579 8583 0
8584 8585 7815 0
8582 8584 7815 0
8576 8073 8074 0
7799 8325 8075 0
8329 8586 8077 0
8078 8325 8587 0
8325 8078 8075 0
8080 8588 8589 0
8079 8588 8080 0
8080 8589 8590 0
8080 8590 8081 0
8333 8329 8086 0
8333 8591 8329 0
8078 8587 8330 0
8587 8592 8330 0
8331 8593 8594 0
8331 8594 8588 0
8331 8588 8079 0
8595 8334 8596 0
8592 8334 8330 0
8596 8334 8592 0
8335 8597 8593 0
8335 8593 8331 0
8335 8336 8597 0
8598 8599 8339 0
8333 8332 8339 0
8595 8600 8341 0
8595 8341 8340 0
8334 8595 8340 0
8597 8336 8354 0
8344 8601 8602 0
8343 8344 8602 0
8601 8346 8603 0
8601 8344 8346 0
8347 8603 8346 0
8604 8603 8347 0
8347 8348 8605 0
8347 8605 8604 0
8351 8606 8598 0
8350 8606 8351 0
8598 8352 8351 0
8339 8352 8598 0
8607 8359 8608 0
8609 8607 8608 0
8610 8608 8359 0
8610 8359 8107 0
8108 8610 8107 0
8600 8610 8108 0
8341 8600 8108 0
8611 8597 8354 0
8345 8343 8612 0
8343 8602 8612 0
8348 8109 8605 0
8357 8606 8350 0
8613 8614 8615 0
8613 8616 8617 0
8614 8613 8617 0
8609 8617 8616 0
8609 8616 8607 0
8607 8616 8618 0
8359 8618 8113 0
8359 8607 8618 0
8358 8611 8354 0
8358 8361 8611 0
8361 8619 8611 0
8345 8612 8377 0
8620 8613 8615 0
8621 8620 8615 0
8616 8613 8618 0
8618 8613 8620 0
8622 8619 8362 0
8362 8619 8361 0
8366 7334 8101 0
8110 8623 8624 0
8621 8625 8620 0
8620 8625 8626 0
8370 8618 8626 0
8618 8620 8626 0
8113 8618 8370 0
8627 8628 8373 0
8628 8629 8373 0
8622 8363 8629 0
8362 8363 8622 0
8367 8369 8368 0
8110 8369 8623 0
8370 8626 8371 0
8628 8630 8631 0
8628 8627 8630 0
8627 8632 8630 0
8373 8374 8632 0
8373 8632 8627 0
8629 8363 8373 0
8376 8633 8375 0
8377 8633 8376 0
8634 8120 8366 0
8626 8378 8371 0
8635 8631 8630 0
8120 8634 8636 0
8374 8382 8632 0
8637 8384 8385 0
8638 8385 8375 0
8637 8385 8638 0
8120 8639 7337 0
8636 8639 8120 0
8381 8640 8387 0
8641 8635 8630 0
8632 8642 8630 0
8382 8642 8632 0
8382 8643 8642 0
8382 8388 8643 0
8643 8644 8642 0
8384 8645 8388 0
8645 8643 8388 0
8637 8645 8384 0
8646 8641 8630 0
8642 8647 8630 0
8647 8646 8630 0
8648 8642 8644 0
8647 8642 8648 0
7337 8649 7867 0
8650 8389 7603 0
8133 8640 8651 0
8387 8640 8133 0
8652 8137 8653 0
8365 8137 8652 0
8654 7867 8649 0
7870 7867 8654 0
7603 8135 8650 0
8655 8391 8656 0
8656 8136 8657 0
8136 8658 8657 0
8651 8136 8133 0
8658 8136 8651 0
7870 8659 8138 0
8654 8659 7870 0
8660 8135 8390 0
8661 8392 8391 0
8656 8391 8393 0
8136 8656 8393 0
8137 8394 8662 0
8137 8662 8653 0
8663 8398 8399 0
8400 8663 8399 0
8664 8663 8400 0
8664 8400 8401 0
8664 8401 8665 0
8659 8666 8138 0
8661 8667 8397 0
8392 8661 8397 0
8668 8662 8394 0
8669 8668 8394 0
8663 8670 8155 0
8663 8155 8398 0
8151 8395 8671 0
8395 8138 8671 0
8403 8667 8408 0
8667 8403 8397 0
8669 8404 8672 0
8394 8404 8669 0
8673 8668 8669 0
8673 8669 8672 0
8401 8405 8665 0
8665 8405 8674 0
8151 8671 8675 0
8151 8675 8406 0
8407 8676 8402 0
8404 8409 8672 0
8410 8672 8409 0
8673 8672 8410 0
8155 8673 8410 0
8406 8677 8411 0
8406 8678 8677 0
8406 8675 8678 0
8405 8156 8679 0
8677 8413 8412 0
8411 8677 8412 0
8415 8677 8678 0
8415 8413 8677 0
8676 8407 8414 0
8676 8414 8680 0
8415 8681 8416 0
8414 8416 8681 0
8156 7897 8426 0
8167 8170 7638 0
8682 8683 8421 0
8684 8418 8417 0
8417 8419 8684 0
8167 8419 8170 0
8428 8685 8429 0
8682 8420 8685 0
8685 8420 8429 0
8421 8420 8682 0
8421 8686 8423 0
8686 8425 8423 0
8687 8425 8686 0
8688 8689 8174 0
8418 8688 8174 0
8684 8688 8418 0
8687 8431 8425 0
7914 8690 8432 0
8691 8690 8179 0
8690 7914 8179 0
8433 8691 8179 0
8689 8691 8433 0
8174 8689 8433 0
8692 8427 8186 0
8436 8692 8186 0
8435 8693 8438 0
8692 8436 8439 0
8694 8692 8439 0
8695 8696 8434 0
8696 8441 8434 0
8697 8442 8693 0
8693 8442 8438 0
8698 8694 8443 0
8443 8694 8439 0
8444 8441 8699 0
8699 8441 8696 0
8699 8696 8700 0
8442 8697 8445 0
8446 8445 8697 0
8701 8446 8697 0
8701 8447 8446 0
8446 8447 7927 0
8447 8702 8193 0
7930 8450 8698 0
8450 8449 8698 0
8443 7930 8698 0
8444 8699 8700 0
8700 8703 8444 0
8193 8704 8198 0
8702 8704 8193 0
8204 8705 8449 0
8454 8444 8703 0
8706 8452 8707 0
8704 8707 8452 0
8198 8704 8452 0
8204 8708 8705 0
8453 8454 8709 0
8455 8706 8710 0
8455 8710 8456 0
8456 8710 8711 0
8452 8706 8455 0
8457 8708 8204 0
8453 8712 8713 0
8709 8712 8453 0
8205 8714 7682 0
8711 8205 8456 0
8714 8205 8711 0
8453 8713 8460 0
8713 8715 8460 0
8462 8461 8716 0
8715 8464 8460 0
8465 8462 8716 0
8718 8464 8715 0
8467 8465 8716 0
8468 8464 8718 0
8470 8719 7956 0
8224 8720 8225 0
8720 8470 8225 0
8211 8468 8469 0
8222 8221 8224 0
8468 8721 8469 0
8723 8724 8474 0
8723 8474 7709 0
7973 8723 7709 0
8469 8723 7973 0
7972 8469 7973 0
7447 8469 7972 0
8725 8726 8727 0
8474 8724 8727 0
8724 8725 8727 0
8728 8729 8480 0
8475 8726 8480 0
8726 8728 8480 0
8476 8726 8475 0
8727 8726 8476 0
8474 8727 8476 0
8729 8479 8229 0
8480 8729 8229 0
8730 8234 8481 0
8477 8730 8481 0
8731 8486 8732 0
8486 8485 8732 0
8486 8731 7721 0
8490 8488 8733 0
8491 8490 8734 0
8490 8733 8734 0
8734 8735 8491 0
8736 8491 8735 0
8492 8491 8736 0
8737 8495 7721 0
7983 8241 8493 0
8738 8237 8493 0
8492 8739 8494 0
8736 8739 8492 0
8497 8740 8242 0
7720 8242 8741 0
8242 8740 8741 0
8741 8241 7720 0
8243 8494 8742 0
8494 8739 8742 0
8495 8743 8496 0
8744 8496 8745 0
8245 8496 8744 0
8746 8498 8747 0
8746 8499 8498 0
8497 8499 8746 0
8246 8744 8748 0
8246 8245 8744 0
8749 8501 8750 0
8747 8751 8749 0
8751 8501 8749 0
8498 8500 8751 0
8747 8498 8751 0
7232 8243 7991 0
8243 8752 7991 0
8748 8753 8505 0
8246 8748 8505 0
8754 8753 8748 0
8750 8754 8748 0
8501 8754 8750 0
8751 8502 8501 0
8500 8502 8751 0
8250 8752 8507 0
8752 8250 7991 0
8505 8753 8504 0
8506 8504 8753 0
8754 8506 8753 0
8501 8506 8754 0
8254 8508 8755 0
8508 8507 8755 0
8254 8755 8514 0
8514 8755 8756 0
8514 8756 8515 0
8756 8757 8515 0
8757 8516 8515 0
8758 8516 8759 0
8015 8516 8758 0
8522 8015 8758 0
8762 8522 8758 0
8522 8763 8764 0
8522 8764 8267 0
8762 8763 8522 0
8267 8764 8019 0
8019 8764 8524 0
8272 8525 6991 0
8767 8028 6991 0
8767 8531 8028 0
8767 8535 8531 0
8531 8535 8279 0
8279 8535 7516 0
8033 8536 8281 0
8536 8538 8281 0
8772 8538 8773 0
8774 8775 8776 0
8775 8774 8777 0
8774 8778 8777 0
8773 8777 8778 0
8773 8778 8772 0
8538 8779 8539 0
8538 8772 8779 0
8779 8780 8539 0
8780 8540 8539 0
8781 8542 8541 0
8537 8543 8782 0
8784 8774 8776 0
8779 8772 8785 0
8786 8780 8785 0
8785 8780 8779 0
8540 8780 8786 0
8787 8540 8786 0
8542 8781 8788 0
8542 8788 8290 0
8290 8789 8790 0
8544 8290 8790 0
8544 8791 8543 0
8543 8791 8782 0
8791 8792 8782 0
8792 8793 8782 0
8794 8774 8784 0
8795 8794 8784 0
8778 8774 8794 0
8785 8778 8794 0
8772 8778 8785 0
8796 8544 8797 0
8791 8544 8796 0
8792 8791 8796 0
8793 8792 8796 0
8798 8785 8794 0
8799 8785 8798 0
8786 8785 8799 0
8800 8545 7777 0
7777 8801 8800 0
7777 7772 8801 0
8802 8292 8546 0
8800 8547 8545 0
8802 8546 8549 0
8552 8553 8803 0
8294 8553 8050 0
8804 8805 8806 0
8807 8805 8804 0
8805 8808 8806 0
8809 8555 8554 0
8803 8554 8552 0
8809 8554 8803 0
8300 8302 8810 0
8302 8811 8810 0
8300 8810 8556 0
8561 8804 8812 0
8561 8813 8804 0
8561 8558 8813 0
8813 8807 8804 0
8555 8814 8562 0
8814 8815 8562 0
8809 8814 8555 0
8816 8305 8563 0
8811 8302 8305 0
8816 8811 8305 0
8564 8561 8812 0
8804 8817 8812 0
8817 8564 8812 0
8806 8817 8804 0
8808 8818 8806 0
8815 8310 8562 0
8819 8310 8815 0
8816 8563 8314 0
8308 8820 8565 0
8308 8559 8820 0
8564 8820 8559 0
8817 8821 8822 0
8817 8806 8821 0
8818 8580 8806 0
8309 8312 8303 0
8303 8312 8823 0
8566 8567 8824 0
8819 8567 8310 0
8825 8314 8063 0
8577 8825 8063 0
8317 8565 8826 0
8806 8580 8821 0
8580 8818 8323 0
8323 8818 8568 0
8312 8569 8823 0
8827 8571 8570 0
8824 8570 8566 0
8827 8570 8824 0
8828 8572 8317 0
8828 8317 8826 0
8829 8822 8821 0
8830 8822 8829 0
8580 8829 8821 0
8568 8818 8581 0
8573 8568 8581 0
8581 8319 8573 0
8571 8831 8574 0
8827 8831 8571 0
8578 8832 8579 0
8572 8833 8578 0
8833 8832 8578 0
8828 8833 8572 0
8327 8830 8829 0
8327 8326 8830 0
8580 8327 8829 0
8574 8831 8582 0
8586 8834 8077 0
8074 8077 8835 0
8077 8834 8835 0
8835 8576 8074 0
8836 8326 8328 0
8589 8588 8837 0
8837 8590 8589 0
8838 8081 8590 0
8838 8076 8081 0
8839 8592 8587 0
8837 8588 8594 0
8840 8590 8837 0
8838 8590 8840 0
8600 8595 8839 0
8839 8595 8596 0
8592 8839 8596 0
8601 8603 8841 0
8603 8604 8841 0
8598 8842 8599 0
8599 8842 8339 0
8843 8333 8339 0
8602 8601 8841 0
8605 8844 8604 0
8624 8598 8606 0
8624 8845 8598 0
8606 8357 8624 0
8615 8614 8846 0
8611 8619 8847 0
8602 8377 8612 0
8605 8109 8848 0
8357 8110 8624 0
8621 8615 8846 0
8847 8619 8622 0
8849 8847 8622 0
8365 8848 8109 0
8850 8366 8101 0
8846 8851 8625 0
8621 8846 8625 0
8628 8852 8853 0
8628 8853 8854 0
8854 8629 8628 0
8622 8629 8854 0
8365 8855 8848 0
8366 8850 8856 0
8625 8851 8626 0
8631 8857 8858 0
8852 8628 8631 0
8858 8852 8631 0
8638 8375 8859 0
8860 8859 8633 0
8859 8375 8633 0
8377 8860 8633 0
8861 8860 8377 0
8366 8856 8634 0
8626 8640 8378 0
8851 8640 8626 0
8862 8857 8635 0
8635 8857 8631 0
8855 8365 8863 0
8634 8864 8636 0
8856 8864 8634 0
8378 8640 8381 0
8365 8865 8863 0
8864 8639 8636 0
8866 8639 8864 0
8635 8641 8862 0
8644 8643 8867 0
8389 8868 8386 0
8641 8869 8862 0
8644 8867 8648 0
8867 8870 8648 0
8365 8652 8865 0
8652 8871 8865 0
8872 8651 8873 0
8651 8640 8873 0
8874 8875 8869 0
8876 8875 8874 0
8641 8874 8869 0
8641 8646 8877 0
8646 8647 8878 0
8877 8646 8878 0
8647 8870 8878 0
8647 8648 8870 0
8653 8879 8871 0
8871 8652 8653 0
7337 8880 8649 0
8649 8880 8654 0
8650 8135 8660 0
8389 8650 8660 0
8881 8391 8655 0
8656 8882 8655 0
8883 8882 8657 0
8882 8656 8657 0
8658 8883 8657 0
8872 8883 8658 0
8651 8872 8658 0
8876 8874 8884 0
8641 8885 8874 0
8885 8884 8874 0
8877 8886 8641 0
8886 8877 8878 0
8870 8886 8878 0
8664 8887 8663 0
8663 8887 8888 0
8665 8887 8664 0
8887 8665 8889 0
8659 8880 8890 0
8880 8659 8654 0
8667 8661 8891 0
8881 8891 8391 0
8891 8661 8391 0
8884 8892 8876 0
8885 8892 8884 0
8893 8892 8885 0
8893 8885 8894 0
8885 8641 8894 0
8895 8886 8896 0
8895 8894 8886 0
8894 8641 8886 0
8653 8662 8879 0
8879 8662 8897 0
8670 8663 8898 0
8898 8663 8888 0
8666 8659 8899 0
8659 8890 8899 0
8894 8895 8893 0
8900 8897 8668 0
8897 8662 8668 0
8900 8155 8670 0
8900 8670 8898 0
8674 8889 8665 0
8666 8901 8138 0
8138 8901 8671 0
8902 8396 8402 0
8408 8667 8903 0
8668 8673 8900 0
8155 8900 8673 0
8904 8889 8674 0
8402 8676 8905 0
8408 8903 8158 0
8678 8675 8671 0
8167 8158 8906 0
8679 8907 8405 0
8405 8907 8674 0
8415 8908 8909 0
8415 8909 8681 0
8681 8909 8414 0
8680 8414 8910 0
8414 8909 8910 0
8905 8676 8680 0
8910 8905 8680 0
8156 8426 8679 0
8683 8682 8911 0
8421 8912 8913 0
8421 8683 8912 0
8683 8911 8912 0
8912 8914 8913 0
8915 8916 8914 0
8917 8914 8916 0
8689 8688 8918 0
8684 8919 8688 0
8688 8919 8918 0
8684 8920 8919 0
8419 8920 8684 0
8920 8419 8167 0
8921 8682 8685 0
8421 8913 8686 0
8687 8686 8913 0
8687 8913 8922 0
8922 8913 8914 0
8917 8922 8914 0
8689 8925 8691 0
8691 8925 8926 0
8925 8689 8918 0
8692 8927 8427 0
8428 8427 8928 0
8921 8685 8428 0
8928 8921 8428 0
8687 8922 8431 0
8690 8926 8929 0
8690 8929 8432 0
8691 8926 8690 0
8431 8922 8434 0
8930 8917 8931 0
8434 8922 8695 0
8917 8695 8922 0
8435 8432 8693 0
8432 8932 8693 0
8696 8695 8930 0
8930 8695 8917 0
8693 8932 8933 0
8697 8693 8933 0
8697 8933 8701 0
8692 8694 8698 0
8934 8692 8698 0
8696 8930 8700 0
8447 8701 8936 0
8936 8702 8447 0
8937 8702 8936 0
8449 8934 8698 0
8938 8704 8937 0
8704 8702 8937 0
8449 8705 8934 0
8454 8703 8939 0
8706 8940 8941 0
8710 8706 8941 0
8938 8940 8707 0
8940 8706 8707 0
8704 8938 8707 0
8942 8705 8708 0
8454 8943 8944 0
8454 8944 8709 0
8939 8943 8454 0
8945 8711 8941 0
8711 8710 8941 0
8708 8457 8942 0
8946 8713 8712 0
8946 8712 8947 0
8947 8712 8948 0
8944 8712 8709 0
8948 8712 8944 0
7682 8950 8951 0
8461 7682 8951 0
8945 8950 8714 0
8950 7682 8714 0
8711 8945 8714 0
8459 8952 8457 0
8947 8953 8946 0
8946 8953 8954 0
8713 8954 8715 0
8946 8954 8713 0
8461 8951 8716 0
8953 8955 8721 0
8718 8954 8721 0
8954 8953 8721 0
8715 8954 8718 0
7173 7956 8719 0
8718 8721 8468 0
8956 8467 8957 0
8957 8467 8716 0
8956 8958 8224 0
8959 8470 8720 0
8719 8470 8959 0
8467 8956 8221 0
8224 8221 8956 0
8720 8224 8958 0
8955 8960 8721 0
8960 8961 8723 0
8721 8960 8723 0
8961 8962 8963 0
8723 8961 8963 0
8721 8723 8469 0
8964 8728 8726 0
8962 8726 8725 0
8724 8962 8725 0
8963 8962 8724 0
8723 8963 8724 0
8728 8964 8729 0
8968 8477 8479 0
8729 8968 8479 0
7979 8969 8485 0
8485 8969 8732 0
8969 8970 8732 0
8731 8970 8971 0
8970 8731 8732 0
8731 8971 7721 0
8971 8972 7721 0
8237 8738 8487 0
8487 8738 8238 0
8239 8238 8973 0
8488 8239 8974 0
8239 8973 8974 0
8975 8733 8974 0
8974 8733 8488 0
8976 8734 8733 0
8734 8976 8735 0
8977 8737 8972 0
8972 8737 7721 0
8735 8978 8979 0
8735 8979 8736 0
8980 8978 8735 0
8977 8981 8495 0
8737 8977 8495 0
8982 8981 8977 0
8493 8241 8983 0
8241 8984 8983 0
8983 8738 8493 0
8739 8985 8986 0
8979 8739 8736 0
8985 8739 8979 0
8743 8495 8981 0
8743 8981 8982 0
8743 8982 8987 0
8988 8497 8989 0
8988 8740 8497 0
8984 8740 8988 0
8741 8740 8984 0
8241 8741 8984 0
8739 8986 8742 0
8986 8990 8742 0
8496 8987 8745 0
8496 8743 8987 0
8987 8991 8745 0
8992 8993 8991 0
8994 8993 8992 0
8746 8994 8992 0
8989 8497 8746 0
8995 8744 8745 0
8991 8995 8745 0
8749 8995 8993 0
8993 8995 8991 0
8747 8749 8993 0
8994 8747 8993 0
8746 8747 8994 0
8750 8748 8744 0
8995 8750 8744 0
8749 8750 8995 0
8243 8996 8752 0
8752 8997 8507 0
8752 8996 8997 0
8998 8507 8997 0
8507 8998 8755 0
8999 8755 8998 0
8756 8755 8999 0
8757 8756 8999 0
8757 8759 8516 0
8757 8999 8759 0
8759 8999 8758 0
9001 9002 9003 0
9004 9001 9005 0
9005 9001 9003 0
9006 9003 9002 0
8758 8763 8762 0
9007 9003 9006 0
9005 9003 9007 0
9007 9008 9009 0
9005 9007 9009 0
9010 9011 9004 0
9005 9010 9004 0
8763 9012 8524 0
8764 8763 8524 0
9005 9009 9008 0
8524 9012 8525 0
9012 9013 8525 0
8525 9013 6991 0
8767 6991 9019 0
9019 8535 8767 0
8535 9019 9021 0
7269 8535 9023 0
7269 9023 7764 0
9025 9026 9027 0
9026 9025 9028 0
9029 9025 9027 0
9028 9025 9030 0
9033 9034 9030 0
9035 9033 9030 0
8775 9036 8776 0
9037 9036 8775 0
9037 8775 8777 0
9038 8289 8540 0
9040 9025 9029 0
9041 9040 9029 0
9030 9025 9040 0
9042 9030 9040 0
9035 9030 9042 0
9043 9033 9035 0
9036 9044 9045 0
9036 9045 8784 0
9036 8784 8776 0
8784 9045 9046 0
9037 9044 9036 0
8786 9047 8787 0
8781 9039 9048 0
8781 9048 8788 0
8290 8788 9049 0
9050 8789 9049 0
8789 8290 9049 0
9050 8790 8789 0
9041 9052 9040 0
9042 9040 9052 0
9043 9035 9042 0
9053 9043 9054 0
9054 9055 9056 0
9053 9054 9056 0
9045 9056 9055 0
9045 9055 9046 0
9046 9055 8795 0
9046 8795 8784 0
9057 9047 8786 0
9058 8790 9050 0
8544 8790 9058 0
8544 9058 8797 0
8797 9058 9059 0
8797 9059 8796 0
9051 8793 8796 0
9060 9051 8796 0
9052 9041 9061 0
9042 9052 9061 0
9062 9042 9061 0
9062 9063 9042 0
9043 9042 9064 0
9054 9043 9064 0
9055 9054 9065 0
8795 9055 9066 0
9066 9055 9065 0
8795 9066 8794 0
9057 8799 8798 0
9057 8786 8799 0
9042 9063 9064 0
9064 9063 9067 0
9064 9068 9065 0
9064 9065 9054 0
9066 9065 9068 0
9069 9066 9068 0
8794 9066 9069 0
8798 8794 9069 0
9070 9064 9067 0
9071 9064 9070 0
9072 8801 7772 0
8045 9073 7772 0
7772 9073 9072 0
8046 8802 9074 0
8292 8802 8046 0
9075 8548 8547 0
8800 9076 8547 0
9076 9075 8547 0
8801 9076 8800 0
9077 9076 8801 0
9078 8802 8549 0
9079 8294 8550 0
8548 9080 8550 0
9080 9079 8550 0
9078 8549 8551 0
9079 8553 8294 0
9081 8805 8807 0
8551 8056 9082 0
8803 9083 8809 0
9083 9084 8809 0
8811 9085 8810 0
8556 8810 8558 0
8813 8558 9086 0
9081 8807 8813 0
9081 8813 9086 0
9087 8805 9081 0
8808 8805 9087 0
8808 9087 9088 0
9089 8808 9088 0
8303 9082 8056 0
9090 9082 8303 0
9091 8815 8814 0
9084 8814 8809 0
9091 8814 9084 0
8811 8816 9092 0
9085 8811 9092 0
9089 8818 8808 0
9090 8303 8823 0
9093 9090 8823 0
9091 8819 8815 0
9094 8314 8825 0
8816 8314 9095 0
9095 8314 9094 0
8820 8564 8817 0
8817 8822 9096 0
8818 9089 9097 0
9098 8824 8567 0
9099 8567 8819 0
9098 8567 9099 0
9094 8825 8577 0
9094 8577 9100 0
9100 8577 9101 0
9102 8826 8565 0
8820 9102 8565 0
9096 8820 8817 0
9096 8822 9103 0
9104 8818 9097 0
8824 9105 8827 0
9105 9106 8827 0
9098 9105 8824 0
9107 9101 8577 0
8826 9108 8828 0
9102 9108 8826 0
8822 8830 9103 0
9103 8830 8836 0
8581 8818 9104 0
8823 8569 9093 0
9106 8831 8827 0
9109 8831 9106 0
9107 8577 8575 0
9110 8579 8832 0
9110 8832 9111 0
9111 8832 8833 0
9111 8833 8828 0
8830 8326 8836 0
8582 9112 9113 0
8831 9109 8582 0
8582 9109 9112 0
8579 9110 8583 0
9113 8584 8582 0
9114 8835 8834 0
8575 8576 8835 0
8575 8835 9115 0
9115 8835 9114 0
9110 8325 8583 0
8838 9116 8076 0
9114 8834 8586 0
9114 8586 9117 0
9110 8587 8325 0
9118 8587 9110 0
9119 7815 8585 0
8333 9120 8591 0
8591 9120 8329 0
9121 8586 8329 0
9118 8839 8587 0
8593 9122 8594 0
8333 8843 9123 0
9123 9120 8333 0
9122 8593 8597 0
9124 9122 8597 0
9125 8841 9126 0
8841 8604 9126 0
9127 8604 8844 0
8608 8610 9128 0
8841 9125 8602 0
9129 7558 7815 0
8624 9130 8845 0
8845 9130 8598 0
8609 8608 9131 0
8597 8611 9124 0
9124 8611 9132 0
8844 8605 9133 0
9129 8101 7558 0
9134 8101 9129 0
8846 8614 9135 0
8617 9136 8614 0
8614 9136 9135 0
9131 8617 8609 0
9136 8617 9131 0
8849 9132 8847 0
8847 9132 8611 0
8605 8848 9133 0
9137 8101 9134 0
9138 8622 8854 0
9138 9139 8622 0
9132 8849 9139 0
9139 8849 8622 0
8377 8602 8861 0
9140 9133 8848 0
8850 8101 9141 0
8101 9137 9141 0
8851 9142 9143 0
9135 8851 8846 0
9142 8851 9135 0
8853 9144 9145 0
8853 8852 9144 0
8852 9146 9144 0
8854 8853 9145 0
9138 8854 9145 0
9147 8860 9148 0
9148 8860 8861 0
8863 9149 8855 0
9149 9140 8855 0
9140 8848 8855 0
8850 9150 8856 0
9141 9150 8850 0
9151 8858 8857 0
9151 9152 8858 0
9146 8852 8858 0
9152 9146 8858 0
8860 9147 8859 0
9151 8857 8862 0
8859 9147 8638 0
8864 9150 9153 0
9150 8864 8856 0
8386 8369 8367 0
9154 8863 8865 0
8851 9143 8640 0
8643 9155 8867 0
8643 8645 9155 0
8865 9156 9154 0
8640 9143 8873 0
9143 9157 8873 0
8869 8875 9158 0
8875 9159 9158 0
8862 8869 9158 0
8865 8871 9156 0
7337 8639 9160 0
8639 8866 9160 0
8386 8868 9161 0
8868 8389 9161 0
9162 8386 9161 0
8872 9163 8883 0
9157 8872 8873 0
9163 8872 9157 0
8875 8876 9159 0
8871 8879 9164 0
8871 9164 9165 0
8871 9165 9156 0
7337 9166 8880 0
9160 9166 7337 0
8660 9167 8389 0
8389 9167 9161 0
9168 9165 9164 0
9169 9170 9171 0
9169 9171 8888 0
8887 9169 8888 0
9172 9169 8887 0
8880 9166 8890 0
8876 9173 9174 0
8892 9173 8876 0
8893 9173 8892 0
9164 8897 9175 0
8879 8897 9164 0
9168 9164 9176 0
9176 9164 9175 0
8898 9171 9176 0
9171 9168 9176 0
8888 9171 8898 0
8899 8890 9177 0
8660 8390 9178 0
8390 8396 9178 0
9167 8660 9178 0
8893 9179 9173 0
8893 8895 9179 0
8896 9179 8895 0
8897 8900 9175 0
8898 9175 8900 0
9176 9175 8898 0
9177 8666 8899 0
9178 8396 8902 0
8901 8666 8671 0
9180 8902 8905 0
8905 8902 8402 0
8903 9181 8158 0
8674 9182 8904 0
8908 8671 8666 0
8678 8671 8908 0
8906 8158 9181 0
8674 8907 9183 0
9182 8674 9183 0
8415 8678 8908 0
9183 8907 8679 0
8910 8909 8908 0
9184 8910 8908 0
8905 8910 9184 0
9185 8167 9186 0
9186 8167 8906 0
9185 8920 8167 0
9187 9188 8912 0
9188 9189 8915 0
8916 8915 9190 0
8915 9189 9190 0
8920 9185 9192 0
8921 9193 8682 0
9193 9187 8911 0
9193 8911 8682 0
8912 8911 9187 0
9188 8914 8912 0
8915 8914 9188 0
8916 9190 8917 0
8917 9190 9194 0
9195 8918 9196 0
9197 9196 8919 0
9196 8918 8919 0
8920 9197 8919 0
9192 9197 8920 0
9198 9199 8921 0
8926 9201 9202 0
8929 8926 9202 0
8926 9203 9201 0
9195 9203 8925 0
9203 8926 8925 0
8918 9195 8925 0
8927 9198 8427 0
9198 8928 8427 0
8921 8928 9198 0
8929 9202 8432 0
9202 8932 8432 0
8701 8933 9205 0
9205 8936 8701 0
8692 8934 9206 0
8936 9210 8937 0
8938 9210 9211 0
8937 9210 8938 0
8934 8705 9212 0
8703 9213 8939 0
8941 8940 9214 0
9211 8940 8938 0
9214 8940 9211 0
9212 8705 8942 0
9215 8944 8943 0
9215 8943 9216 0
9213 8943 8939 0
9216 8943 9213 0
9217 8945 9214 0
9214 8945 8941 0
8457 8952 8942 0
8952 9218 8942 0
9215 8947 8948 0
8944 9215 8948 0
8950 9217 9219 0
8950 9219 8951 0
8945 9217 8950 0
8459 9218 8952 0
9220 9221 9222 0
9223 9220 9222 0
8953 9220 9223 0
8947 9220 8953 0
8953 9222 8955 0
9223 9222 8953 0
8951 9224 8716 0
8209 8719 8959 0
8209 7173 8719 0
9221 9225 9226 0
8955 9222 9227 0
9222 9221 9227 0
9228 8957 9224 0
9224 8957 8716 0
9221 9226 9227 0
8955 9227 8960 0
8957 9228 9229 0
8957 9229 8956 0
8956 9229 9230 0
9230 9231 8958 0
9230 8958 8956 0
8720 8958 9231 0
9232 9233 9234 0
9235 9233 9236 0
9236 9233 9232 0
9226 9235 9227 0
9227 9235 9236 0
9232 9237 9238 0
8961 9236 9238 0
9236 9232 9238 0
8960 9236 8961 0
9227 9236 8960 0
9238 8726 8962 0
8961 9238 8962 0
9240 8968 9241 0
8730 8477 9242 0
9242 8477 8968 0
9241 8968 8729 0
8964 9241 8729 0
9244 8484 8234 0
7979 9245 8969 0
8969 9246 8970 0
8970 9247 8971 0
8970 9248 9247 0
8970 9246 9248 0
9249 8733 8975 0
8976 8733 9249 0
9247 9250 8972 0
8971 9247 8972 0
9248 9251 9247 0
9251 9250 9247 0
9248 9252 9251 0
9253 9254 8738 0
8238 8738 9255 0
8738 9254 9255 0
9256 9257 8973 0
9256 8973 9255 0
9255 8973 8238 0
8974 8973 9257 0
8975 8974 9257 0
8976 9258 8735 0
8980 8735 9258 0
8980 9258 9259 0
9260 9259 9261 0
8980 9259 9260 0
8972 9250 8977 0
8977 9250 9262 0
9262 9250 9251 0
9263 9251 9252 0
9262 9251 9263 0
8984 9253 8983 0
9253 8738 8983 0
9260 8978 8980 0
8977 9262 8982 0
8982 9263 9264 0
8982 9262 9263 0
9264 9265 9266 0
8985 9267 8986 0
8978 8985 8979 0
8978 9267 8985 0
8982 9264 8987 0
9269 8987 9264 0
9266 9269 9264 0
8992 9269 9266 0
8746 8992 9266 0
8991 8987 9269 0
8992 8991 9269 0
8990 9270 8742 0
9271 9270 8990 0
8243 8742 9272 0
8742 9270 9272 0
8243 9273 8996 0
8243 9272 9273 0
8997 8996 9273 0
9274 8997 9273 0
8998 8997 9274 0
9274 9275 8998 0
9275 9276 8998 0
8998 9276 8999 0
9277 9278 9279 0
9279 9278 9280 0
9280 9278 9281 0
9281 9278 9282 0
9280 9281 9283 0
9284 9285 9280 0
9283 9284 9280 0
9001 9282 9002 0
9282 9278 9002 0
9004 9282 9001 0
9281 9282 9004 0
9004 9283 9281 0
9002 9278 9287 0
9006 9002 9287 0
9004 9011 9288 0
8758 9290 8763 0
9291 9288 9011 0
9007 9006 9292 0
9007 9292 9008 0
8763 9290 9012 0
9292 9293 9008 0
9008 9294 9005 0
9005 9294 9295 0
9005 9295 9010 0
9010 9295 9011 0
9012 9290 9013 0
9296 9297 9293 0
9293 9297 9008 0
9294 9008 9297 0
9298 9297 9296 0
9299 9298 9296 0
9294 9297 9298 0
9300 9295 9294 0
6991 9013 9019 0
9298 9303 9304 0
9298 9304 9294 0
9305 9294 9304 0
9305 9300 9294 0
9307 9304 9303 0
9308 9307 9303 0
9305 9304 9307 0
9308 9309 9310 0
9308 9310 9307 0
9307 9310 9305 0
9311 9305 9310 0
9312 9313 9311 0
9311 9310 9026 0
9315 9311 9026 0
9315 9312 9311 0
8535 9021 9023 0
7764 9023 8536 0
9317 9310 9309 0
9318 9317 9309 0
9026 9317 9027 0
9026 9310 9317 0
9315 9026 9028 0
9028 9030 9315 0
9023 9319 8536 0
9317 9318 9320 0
9320 9027 9317 0
8536 9319 8538 0
9027 9320 9029 0
8538 9319 8773 0
9321 9030 9034 0
9321 9034 9033 0
8777 9323 9037 0
9037 9323 9324 0
9325 8777 8773 0
9323 8777 9325 0
9029 9326 9041 0
9044 9327 9045 0
9045 9327 9328 0
9324 9044 9037 0
9327 9044 9324 0
9038 8540 8787 0
9048 9039 9329 0
8788 9048 9049 0
9330 9041 9326 0
9043 9331 9332 0
9043 9053 9331 0
9056 9333 9053 0
9053 9333 9331 0
9328 9056 9045 0
9333 9056 9328 0
9047 9057 9334 0
9050 9049 9336 0
9059 9058 9337 0
9060 8796 9059 0
9051 9060 9338 0
9338 9060 9059 0
9061 9041 9330 0
9339 9062 9330 0
9062 9061 9330 0
9062 9339 9063 0
9339 9340 9063 0
9057 8798 9069 0
9057 9069 9334 0
9072 9073 9342 0
9342 9073 9343 0
9343 9073 8045 0
8046 9344 8045 0
8045 9344 9343 0
9074 9345 9344 0
9074 9344 8046 0
9074 8802 9346 0
9076 9077 9075 0
9072 9077 8801 0
9072 9347 9077 0
9342 9347 9072 0
9074 9348 9345 0
9346 9348 9074 0
9078 9349 9346 0
9078 9346 8802 0
9079 9080 9350 0
9075 9080 8548 0
9078 9351 9352 0
9078 9352 9349 0
9078 8551 9351 0
8553 9353 8803 0
9350 8553 9079 0
9353 8553 9350 0
9351 8551 9082 0
9354 9084 9083 0
8810 9085 9086 0
9086 8558 8810 0
9081 9086 9355 0
9087 9081 9355 0
9356 9082 9090 0
9084 9357 9091 0
9084 9354 9357 0
9088 9087 9358 0
9359 9088 9358 0
9089 9088 9359 0
9089 9359 9360 0
9097 9089 9360 0
9361 9356 9090 0
9362 9099 8819 0
9091 9357 8819 0
9357 9362 8819 0
9094 9363 9095 0
9092 8816 9095 0
9090 9364 9361 0
9364 9090 9093 0
9364 9093 9365 0
9362 9098 9099 0
9366 9100 9101 0
9363 9094 9100 0
9366 9363 9100 0
8820 9367 9102 0
9096 9367 8820 0
9096 9368 9367 0
9103 9369 9368 0
9103 9368 9096 0
9365 9093 9370 0
9371 9106 9105 0
9372 9105 9098 0
9371 9105 9372 0
9366 9101 9107 0
9366 9107 9373 0
9111 8828 9374 0
9108 9375 8828 0
8828 9375 9374 0
9367 9108 9102 0
9375 9108 9367 0
9104 9097 9376 0
8581 9104 9377 0
9104 9376 9377 0
9377 9370 8569 0
8569 9370 9093 0
9106 9378 9109 0
9371 9378 9106 0
9110 9111 9374 0
9379 9369 9103 0
9103 8836 9379 0
8569 8581 9377 0
9109 9380 9112 0
9378 9380 9109 0
9113 8585 8584 0
8076 9116 9381 0
9379 8328 9381 0
9381 8328 8076 0
8836 8328 9379 0
9119 9382 9129 0
9374 9118 9110 0
9383 9116 8838 0
9129 7815 9119 0
9121 8329 9120 0
8594 9384 9385 0
9122 9384 8594 0
8837 8594 9385 0
8837 9385 8840 0
9383 8838 8840 0
9386 9126 9387 0
9121 9120 9123 0
9121 9123 9388 0
9126 9386 9125 0
9126 9389 9387 0
9126 8604 9389 0
9389 8604 9127 0
8610 8600 9128 0
9390 8600 8839 0
9391 9122 9124 0
9391 9124 9392 0
9393 9127 8844 0
8598 9130 9394 0
9130 9395 9394 0
9394 8842 8598 0
9396 9131 8608 0
9396 8608 9128 0
9124 9132 9392 0
9392 9132 9397 0
9125 9398 8602 0
9393 8844 9133 0
9399 9134 9129 0
9400 9395 9130 0
9135 9136 9401 0
9402 9135 9401 0
9136 9403 9401 0
9131 9403 9136 0
9396 9403 9131 0
8602 9398 8861 0
9404 9393 9133 0
9137 9134 9405 0
9134 9399 9405 0
8624 9400 9130 0
9135 9402 9406 0
9406 9402 9407 0
9408 9407 9401 0
9407 9402 9401 0
9403 9408 9401 0
9145 9409 9410 0
9144 9409 9145 0
9138 9145 9411 0
9145 9410 9411 0
9139 9138 9412 0
9138 9411 9412 0
9397 9132 9139 0
9412 9397 9139 0
9398 9413 8861 0
9133 9414 9404 0
9133 9140 9414 0
9137 9415 9141 0
9405 9415 9137 0
8624 8623 9400 0
9416 9143 9142 0
9416 9142 9417 0
9406 9142 9135 0
9406 9418 9142 0
9418 9417 9142 0
9407 9418 9406 0
9419 9418 9407 0
9408 9419 9407 0
9420 9409 9146 0
9146 9409 9144 0
9147 9148 9413 0
9413 9148 8861 0
9421 8863 9422 0
9421 9149 8863 0
9140 9149 9421 0
9414 9140 9421 0
9415 9150 9141 0
9423 9150 9415 0
9424 9420 9152 0
9424 9152 9425 0
9425 9152 9151 0
9146 9152 9420 0
9426 9151 8862 0
9147 9427 8638 0
8863 9154 9422 0
9428 8369 8386 0
9429 9428 8386 0
8637 8638 9430 0
9431 9429 8386 0
9432 9157 9416 0
9416 9157 9143 0
9430 8645 8637 0
9154 9156 9433 0
8386 9162 9431 0
9434 9158 9159 0
8866 9435 9160 0
8864 9435 8866 0
8883 9436 9437 0
9432 9163 9157 0
9432 9436 9163 0
9436 8883 9163 0
9159 9438 9434 0
9438 9159 9439 0
9439 9159 8876 0
9433 9165 9440 0
9156 9165 9433 0
9441 9433 9442 0
9442 9433 9440 0
9170 9169 9443 0
9170 9443 9441 0
9170 9441 9442 0
9443 9169 9172 0
9435 9166 9160 0
9444 9166 9435 0
9437 8882 8883 0
8876 9445 9439 0
9174 9445 8876 0
9174 9446 9445 0
9165 9168 9440 0
9171 9440 9168 0
9442 9440 9171 0
9170 9442 9171 0
9166 9447 8890 0
9166 9444 9447 0
9174 9173 9446 0
8886 9448 8896 0
8886 8870 9448 0
9177 8890 9447 0
9449 9167 9178 0
9173 9179 9450 0
9451 9452 9450 0
9451 9450 8896 0
8896 9450 9179 0
8896 9448 9451 0
9451 9448 9453 0
9454 9448 8870 0
9453 9448 9454 0
8666 9177 9455 0
9455 9177 9456 0
9457 9177 9447 0
9456 9177 9457 0
9449 9178 8902 0
9458 9449 8902 0
9451 9459 9452 0
9453 9459 9451 0
9460 9459 9453 0
9454 9460 9453 0
9461 9456 9457 0
9461 9462 9456 0
9462 9461 9180 0
9461 9458 9180 0
9458 8902 9180 0
8904 9182 9463 0
8666 9455 8908 0
9456 9184 9455 0
9184 8908 9455 0
8905 9184 9462 0
9462 9184 9456 0
9180 8905 9462 0
9464 8906 9465 0
9465 8906 9466 0
9466 8906 9181 0
9463 9182 9183 0
9464 9185 9186 0
8906 9464 9186 0
9468 9469 9470 0
9469 9471 9470 0
9472 9185 9464 0
9193 9473 9187 0
9188 9187 9474 0
9187 9473 9474 0
9475 9468 9189 0
9475 9189 9474 0
9474 9189 9188 0
9190 9189 9468 0
9470 9190 9468 0
9194 9190 9470 0
9194 9470 9471 0
9476 9194 9471 0
9192 9472 9197 0
9197 9472 9478 0
9472 9192 9185 0
9479 9473 9193 0
9198 9481 9199 0
8921 9199 9479 0
9199 9481 9479 0
9479 9193 8921 0
8917 9194 8931 0
9482 9202 9201 0
9482 9201 9483 0
9483 9201 9203 0
9483 9203 9195 0
9484 9485 9198 0
9485 9481 9198 0
8931 9194 9486 0
8932 9202 9482 0
9198 8927 9484 0
9206 9487 8692 0
9487 8927 8692 0
9488 8932 9482 0
8932 9488 9205 0
8932 9205 8933 0
9489 8936 9205 0
9206 8934 9490 0
8930 9491 8700 0
9492 8930 8931 0
9491 8930 9492 0
8936 9489 9210 0
9489 9495 9210 0
9490 8934 9212 0
9491 9496 9497 0
9491 9497 8700 0
8700 9497 8703 0
9492 9496 9491 0
9214 9495 9500 0
9214 9211 9495 0
9211 9210 9495 0
9212 9501 9490 0
9502 9503 9504 0
9502 9213 9497 0
9213 8703 9497 0
8942 9501 9212 0
9505 9503 9506 0
9507 9505 9506 0
9508 9503 9505 0
9504 9503 9508 0
9509 9504 9508 0
8947 9504 9509 0
9215 9504 8947 0
9502 9215 9216 0
9213 9502 9216 0
9217 9510 9511 0
9219 9217 9511 0
9500 9510 9214 0
9510 9217 9214 0
9507 9512 9505 0
9505 9512 9513 0
9221 9508 9513 0
9508 9505 9513 0
9220 9508 9221 0
9509 9508 9220 0
8947 9509 9220 0
9219 9511 8951 0
9218 8959 9514 0
9218 8209 8959 0
8459 8209 9218 0
9513 9515 9225 0
9221 9513 9225 0
8951 9511 9224 0
9511 9516 9224 0
9514 8720 9517 0
9514 8959 8720 0
9515 9518 9519 0
9225 9519 9226 0
9515 9519 9225 0
9224 9516 9520 0
9228 9224 9520 0
9228 9520 9521 0
9231 9230 9522 0
9517 8720 9231 0
9518 9234 9233 0
9235 9518 9233 0
9519 9518 9235 0
9226 9519 9235 0
9228 9521 9229 0
9522 9229 9521 0
9230 9229 9522 0
9234 9523 9232 0
9523 9524 9237 0
9232 9523 9237 0
9524 9525 9526 0
9526 9525 8964 0
9237 9526 9238 0
9524 9526 9237 0
9525 9240 9241 0
8964 9525 9241 0
9526 8964 8726 0
9238 9526 8726 0
9527 9528 9529 0
9240 9529 8968 0
9240 9527 9529 0
9530 8235 9531 0
9532 9531 8235 0
9532 8235 8484 0
9244 9532 8484 0
9528 8234 8730 0
9242 9528 8730 0
9529 9528 9242 0
8968 9529 9242 0
7979 9530 9535 0
7979 9535 9245 0
9245 9535 9536 0
8235 9530 7979 0
8969 9536 9539 0
9536 8969 9245 0
9539 9540 8969 0
9249 9541 8976 0
9541 9542 8976 0
9540 9246 8969 0
9249 8975 9543 0
9258 8976 9544 0
9542 9545 8976 0
9545 9544 8976 0
9546 9542 9547 0
9545 9542 9546 0
9548 9246 9549 0
9248 9246 9548 0
9550 9551 9552 0
9256 9553 9257 0
9543 8975 9553 0
9553 8975 9257 0
9259 9258 9544 0
9545 9259 9544 0
9545 9261 9259 0
9545 9546 9261 0
9248 9548 9252 0
9548 9554 9252 0
9253 8988 9552 0
9551 9253 9552 0
9254 9253 9551 0
9255 9254 9551 0
9256 9255 9551 0
9261 9546 9260 0
9546 9555 9260 0
9556 9263 9554 0
9554 9263 9252 0
8988 9265 9557 0
8989 9265 8988 0
9253 8984 8988 0
9555 8978 9260 0
9263 9556 9264 0
9265 9264 9556 0
8746 9266 9265 0
8989 8746 9265 0
9558 8986 9267 0
9558 9267 9559 0
9559 9267 8978 0
9559 8978 9555 0
8986 9271 8990 0
8986 9558 9271 0
9558 9560 9271 0
9560 9270 9271 0
9561 9270 9560 0
9270 9561 9272 0
9272 9562 9273 0
9563 9564 9565 0
9273 9562 9274 0
9562 9566 9274 0
9275 9274 9567 0
9274 9566 9567 0
9568 9569 9570 0
9571 9572 9279 0
9279 9572 9277 0
9573 9571 9279 0
9570 9573 9279 0
9279 9568 9570 0
9574 9275 9567 0
9276 9275 9574 0
9572 9565 9277 0
9575 9568 9279 0
9276 9576 8999 0
9574 9576 9276 0
9577 9564 9578 0
9565 9564 9579 0
9579 9564 9577 0
9277 9579 9278 0
9277 9565 9579 0
9279 9280 9285 0
9279 9285 9575 0
9580 9577 9578 0
9575 9285 9581 0
9576 9582 8999 0
9577 9583 9584 0
9577 9584 9579 0
9278 9584 9287 0
9579 9584 9278 0
9581 9285 9284 0
9583 9287 9584 0
9283 9004 9585 0
9585 9284 9283 0
9583 9586 9287 0
9287 9586 9006 0
9587 9585 9004 0
9288 9587 9004 0
9288 9291 9588 0
9588 9291 9589 0
9006 9590 9292 0
9011 9591 9592 0
9291 9011 9592 0
9292 9594 9293 0
9590 9594 9292 0
9011 9295 9591 0
9296 9293 9594 0
9591 9295 9598 0
9594 9600 9296 0
9600 9299 9296 0
9601 9598 9300 0
9598 9295 9300 0
9602 9013 9603 0
9019 9013 9602 0
9298 9299 9606 0
9606 9299 9600 0
9601 9305 9607 0
9300 9305 9601 0
9305 9311 9607 0
9311 9609 9607 0
9019 9610 9021 0
9610 9611 9021 0
9303 9613 9308 0
9609 9311 9313 0
9609 9313 9312 0
9613 9309 9308 0
9614 9309 9613 0
9615 9616 9312 0
9315 9615 9312 0
9023 9021 9617 0
9309 9619 9318 0
9030 9615 9315 0
9320 9318 9619 0
9621 9320 9619 0
9320 9621 9029 0
9319 9622 8773 0
9325 8773 9622 0
9628 9324 9629 0
9622 9629 9323 0
9629 9324 9323 0
9325 9622 9323 0
9043 9332 9033 0
9630 9328 9631 0
9628 9631 9327 0
9631 9328 9327 0
9324 9628 9327 0
9049 9048 9634 0
9333 9332 9331 0
9638 9332 9333 0
9630 9638 9333 0
9328 9630 9333 0
9049 9634 9639 0
9336 9049 9639 0
9050 9336 9640 0
9336 9639 9640 0
9058 9050 9641 0
9050 9640 9641 0
9337 9058 9641 0
9059 9642 9338 0
9338 9635 9051 0
9338 9642 9635 0
9642 9643 9635 0
9643 9636 9635 0
9326 9644 9645 0
9330 9326 9645 0
9059 9337 9646 0
9642 9059 9646 0
9647 9642 9646 0
9643 9642 9647 0
9648 9071 9070 0
9068 9064 9071 0
9343 9344 9345 0
9347 9075 9077 0
9347 9653 9075 0
9342 9653 9347 0
9343 9653 9342 0
9345 9653 9343 0
9348 9654 9345 0
9349 9654 9346 0
9346 9654 9348 0
9655 9350 9080 0
9656 9352 9351 0
9657 9656 9351 0
9658 8803 9353 0
9354 9083 9659 0
9658 9083 8803 0
9086 9660 9355 0
9082 9661 9351 0
9082 9356 9661 0
9357 9354 9659 0
9662 9085 9092 0
9086 9085 9663 0
9663 9085 9662 0
9660 9086 9663 0
9664 9355 9660 0
9087 9355 9664 0
9087 9664 9358 0
9359 9358 9665 0
9358 9664 9665 0
9097 9360 9665 0
9360 9359 9665 0
9356 9361 9666 0
9661 9356 9666 0
9362 9357 9659 0
9667 9095 9363 0
9095 9667 9668 0
9662 9092 9095 0
9364 9666 9361 0
9669 9372 9098 0
9362 9670 9098 0
9670 9669 9098 0
9363 9366 9671 0
9671 9366 9672 0
9667 9363 9671 0
9673 9367 9674 0
9367 9368 9675 0
9097 9676 9677 0
9097 9678 9679 0
9097 9677 9678 0
9364 9679 9678 0
9364 9680 9679 0
9365 9370 9680 0
9364 9365 9680 0
9372 9681 9371 0
9681 9682 9371 0
9669 9681 9372 0
9373 9107 9683 0
9107 9684 9683 0
9672 9366 9373 0
9683 9672 9373 0
9367 9673 9375 0
9685 9675 9368 0
9685 9368 9369 0
9685 9369 9686 0
9097 9679 9376 0
9377 9376 9679 0
9680 9377 9679 0
9370 9377 9680 0
9682 9378 9371 0
9687 9378 9682 0
9684 9107 8575 0
9688 9374 9375 0
9689 9380 9378 0
9689 9378 9687 0
9690 9691 9374 0
9369 9379 9686 0
9686 9379 9692 0
9113 9112 9693 0
9380 9693 9112 0
9694 9693 9380 0
9689 9694 9380 0
9115 9114 9695 0
9114 9696 9695 0
9684 8575 9115 0
9695 9684 9115 0
9692 9379 9381 0
9116 9692 9381 0
9113 9119 8585 0
9113 9697 9119 0
9697 9382 9119 0
9693 9697 9113 0
9121 9698 8586 0
9117 8586 9699 0
8586 9698 9699 0
9696 9114 9117 0
9699 9696 9117 0
9374 9700 9118 0
9691 9700 9374 0
9382 9701 9129 0
9700 9702 9118 0
9387 9703 9386 0
9386 9703 9704 0
9388 9123 9705 0
9698 9121 9388 0
9705 9698 9388 0
9706 8839 9118 0
9390 8839 9706 0
9386 9704 9125 0
9387 9707 9703 0
9389 9707 9387 0
9707 9389 9127 0
9708 9128 9390 0
9390 9128 8600 0
9391 9709 9122 0
9709 9384 9122 0
9704 9710 9398 0
9704 9398 9125 0
9127 9393 9707 0
9128 9403 9396 0
9128 9708 9403 0
9709 9391 9711 0
9392 9397 9712 0
9391 9392 9712 0
9398 9710 9713 0
9707 9393 9404 0
9129 9714 9399 0
9701 9714 9129 0
9395 9400 9394 0
9715 9403 9716 0
9717 9718 9711 0
9711 9391 9717 0
9391 9719 9717 0
9397 9719 9712 0
9712 9719 9391 0
9720 9398 9713 0
9399 9714 9721 0
9399 9721 9405 0
9394 9400 9428 0
9408 9403 9722 0
9715 9722 9403 0
9723 9724 9420 0
9420 9410 9409 0
9420 9724 9410 0
9724 9725 9410 0
9718 9717 9411 0
9718 9411 9725 0
9725 9411 9410 0
9412 9411 9717 0
9719 9412 9717 0
9397 9412 9719 0
9720 9413 9398 0
9421 9726 9727 0
9404 9414 9727 0
9727 9414 9421 0
9721 9415 9405 0
9728 9415 9721 0
9400 8623 9428 0
9416 9417 9729 0
9419 9730 9418 0
9408 9730 9419 0
9408 9731 9730 0
9408 9722 9731 0
9732 9730 9731 0
9715 9731 9722 0
9723 9424 9733 0
9420 9424 9723 0
9726 9421 9422 0
9428 8623 8369 0
9734 9735 9736 0
9737 9426 9736 0
9151 9426 9733 0
9733 9426 9737 0
9425 9151 9733 0
9424 9425 9733 0
9720 9147 9413 0
9734 9731 9715 0
9147 9738 9427 0
9422 9154 9739 0
9150 9423 9740 0
9429 9741 9428 0
9731 9742 9743 0
9731 9734 9742 0
8862 9158 9426 0
8638 9427 9430 0
9739 9154 9744 0
9150 9745 9153 0
9740 9745 9150 0
9431 9746 9429 0
9429 9746 9741 0
9416 9747 9432 0
9748 9743 9742 0
9749 9743 9748 0
9734 9750 9742 0
9750 9748 9742 0
9736 9426 9734 0
9426 9750 9734 0
8867 9155 9430 0
9430 9155 8645 0
9154 9433 9751 0
9154 9751 9744 0
9153 9752 9753 0
9153 9753 8864 0
9745 9752 9153 0
9431 9162 9754 0
9746 9431 9754 0
9747 9755 9432 0
9748 9756 9749 0
9750 9756 9748 0
9757 9756 9750 0
9757 9750 9434 0
9750 9426 9434 0
9426 9158 9434 0
9441 9443 9751 0
9441 9751 9433 0
9758 9443 9172 0
8887 9758 9172 0
9435 8864 9759 0
8864 9753 9759 0
9754 9162 9161 0
9760 9754 9161 0
9436 9761 9437 0
9755 9436 9432 0
9761 9436 9755 0
9434 9762 9757 0
9434 9438 9762 0
9439 9763 9438 0
9438 9763 9762 0
9435 9764 9444 0
9759 9764 9435 0
9161 9167 9765 0
8891 8881 9766 0
9439 9445 9763 0
9446 9763 9445 0
9767 9763 9446 0
9446 9173 9768 0
9446 9768 9767 0
9769 9770 8867 0
9444 9771 9772 0
9444 9772 9447 0
9764 9771 9444 0
9765 9167 9449 0
8867 9770 8870 0
9769 9773 9770 0
9772 9774 9447 0
9775 9765 9449 0
9766 8667 8891 0
8870 9770 9454 0
9461 9457 9774 0
9774 9457 9447 0
9449 9458 9776 0
9766 8903 8667 0
9452 9777 9778 0
9459 9777 9452 0
9460 9779 9459 0
9459 9779 9777 0
9454 9779 9460 0
9454 9780 9779 0
9454 9770 9780 0
9773 9781 9770 0
9781 9780 9770 0
9781 9773 9782 0
9776 9458 9461 0
9783 9181 8903 0
9780 9784 9779 0
9781 9784 9780 0
9785 9784 9781 0
9782 9785 9781 0
9464 9465 9786 0
9783 9786 9466 0
9786 9465 9466 0
9181 9783 9466 0
9789 9464 9786 0
9791 9464 9789 0
9475 9792 9468 0
9793 9469 9792 0
9792 9469 9468 0
9471 9469 9793 0
9794 9471 9793 0
9471 9795 9796 0
9471 9794 9795 0
9796 9797 9798 0
9795 9797 9796 0
9799 9472 9800 0
9791 9800 9472 0
9464 9791 9472 0
9801 9473 9802 0
9474 9473 9801 0
9475 9474 9801 0
9476 9471 9796 0
9476 9796 9486 0
9798 9486 9796 0
9197 9806 9807 0
9799 9806 9478 0
9806 9197 9478 0
9472 9799 9478 0
9802 9479 9808 0
9473 9479 9802 0
9476 9486 9194 0
9798 9809 9486 0
9483 9195 9810 0
9807 9196 9197 0
9811 9485 9812 0
9811 9481 9485 0
9479 9481 9811 0
9808 9479 9811 0
9482 9483 9810 0
9812 9485 9484 0
9809 9813 9486 0
9814 9809 9815 0
9813 9809 9814 0
9484 8927 9487 0
9816 9817 9813 0
9817 9486 9813 0
9814 9816 9813 0
9817 9818 9486 0
9818 9819 9486 0
9820 9817 9816 0
9818 9817 9820 0
9486 9821 8931 0
9822 9821 9819 0
9821 9486 9819 0
9818 9822 9819 0
9823 9822 9818 0
9820 9823 9818 0
9825 9205 9488 0
9205 9825 9489 0
9821 9826 8931 0
8931 9826 9492 0
9822 9826 9821 0
9828 9495 9825 0
9825 9495 9489 0
9503 9829 9830 0
9503 9502 9831 0
9829 9503 9831 0
9502 9497 9496 0
9502 9496 9832 0
9826 9496 9492 0
9832 9496 9826 0
9495 9828 9835 0
9495 9835 9500 0
9836 9490 9501 0
9503 9830 9506 0
9506 9830 9837 0
9215 9502 9504 0
9500 9835 9838 0
9501 9839 9836 0
9501 8942 9839 0
9507 9506 9837 0
9510 9838 9511 0
9838 9510 9500 0
9839 9514 9231 0
8942 9218 9514 0
9839 8942 9514 0
9837 9840 9512 0
9507 9837 9512 0
9512 9841 9513 0
9840 9841 9512 0
9514 9517 9231 0
9840 9842 9843 0
9515 9841 9843 0
9841 9840 9843 0
9513 9841 9515 0
9520 9516 9844 0
9844 9516 9511 0
9845 9843 9842 0
9515 9843 9518 0
9846 9521 9520 0
9522 9521 9846 0
9234 9843 9845 0
9234 9845 9847 0
9518 9843 9234 0
9848 9523 9847 0
9523 9234 9847 0
9848 9525 9524 0
9523 9848 9524 0
9849 9850 9527 0
9240 9849 9527 0
9850 9244 8234 0
9528 9850 8234 0
9527 9850 9528 0
9536 9851 9539 0
9854 9539 9851 0
9540 9539 9854 0
9855 9856 9543 0
9543 9856 9249 0
9249 9856 9857 0
9858 9859 9541 0
9858 9541 9857 0
9857 9541 9249 0
9542 9541 9859 0
9860 9542 9859 0
9547 9542 9860 0
9547 9860 9861 0
9547 9861 9862 0
9540 9549 9246 0
9540 9854 9549 0
9854 9863 9549 0
9864 9550 9855 0
9543 9864 9855 0
9546 9547 9865 0
9866 9548 9863 0
9863 9548 9549 0
9867 9868 9866 0
9866 9868 9869 0
9868 8988 9869 0
9870 9552 8988 0
9550 9552 9870 0
9864 9551 9550 0
9256 9551 9864 0
9553 9256 9864 0
9543 9553 9864 0
9866 9556 9554 0
9548 9866 9554 0
9871 9556 9866 0
9557 9871 9869 0
9869 9871 9866 0
8988 9557 9869 0
9546 9865 9555 0
9555 9865 9872 0
9871 9265 9556 0
9557 9265 9871 0
9872 9873 9555 0
9559 9873 9558 0
9555 9873 9559 0
9874 9558 9873 0
9560 9558 9874 0
9874 9561 9560 0
9875 9876 9877 0
9561 9878 9272 0
9879 9880 9881 0
9879 9881 9876 0
9877 9876 9882 0
9883 9877 9882 0
9884 9876 9563 0
9572 9882 9884 0
9882 9876 9884 0
9571 9882 9572 0
9883 9882 9571 0
9571 9885 9883 0
9886 9883 9887 0
9887 9883 9885 0
9888 9886 9887 0
9876 9881 9889 0
9563 9889 9564 0
9563 9876 9889 0
9884 9563 9565 0
9572 9884 9565 0
9571 9573 9885 0
9570 9885 9573 0
9887 9885 9570 0
9570 9890 9887 0
9890 9888 9887 0
9891 9562 9272 0
9566 9562 9891 0
9570 9569 9890 0
9566 9892 9567 0
9891 9892 9566 0
9893 9881 9880 0
9894 9893 9880 0
9889 9881 9895 0
9895 9881 9893 0
9889 9895 9564 0
9564 9895 9578 0
9568 9896 9897 0
9576 9574 9898 0
9895 9899 9578 0
9899 9580 9578 0
9568 9581 9900 0
9575 9581 9568 0
9896 9568 9900 0
9901 9576 9898 0
9582 9576 9901 0
9902 9577 9580 0
9902 9580 9903 0
9903 9580 9899 0
9577 9902 9583 0
9581 9284 9900 0
9284 9904 9900 0
9904 9896 9900 0
9905 9897 9896 0
9904 9905 9896 0
9582 9906 9907 0
9582 9907 8999 0
9901 9906 9582 0
9908 9902 9903 0
9583 9902 9909 0
9284 9905 9904 0
8999 9907 8758 0
9911 9902 9908 0
9909 9902 9911 0
8758 9907 9290 0
9908 9912 9913 0
9908 9913 9911 0
9911 9913 9909 0
9583 9913 9586 0
9909 9913 9583 0
9585 9905 9284 0
9912 9586 9913 0
9912 9914 9586 0
9914 9006 9586 0
9585 9587 9915 0
9288 9588 9916 0
9288 9916 9587 0
9587 9916 9915 0
9914 9917 9006 0
9588 9589 9918 0
9918 9916 9588 0
9006 9917 9590 0
9291 9592 9589 0
9591 9598 9592 0
9598 9923 9592 0
9290 9603 9013 0
9926 9600 9594 0
9927 9600 9926 0
9598 9601 9923 0
9923 9601 9607 0
9600 9927 9606 0
9602 9610 9019 0
9602 9929 9610 0
9611 9610 9930 0
9931 9930 9932 0
9611 9930 9931 0
9606 9303 9298 0
9606 9934 9303 0
9934 9613 9303 0
9935 9609 9312 0
9611 9931 9021 0
9936 9613 9934 0
9021 9931 9617 0
9936 9614 9613 0
9936 9937 9614 0
9937 9309 9614 0
9938 9023 9617 0
9309 9937 9619 0
9938 9319 9023 0
9940 9319 9938 0
9943 9621 9619 0
9943 9944 9621 0
9944 9029 9621 0
9319 9940 9622 0
9940 9945 9622 0
9946 9622 9945 0
9332 9947 9033 0
9332 9948 9947 0
9949 9948 9638 0
9638 9948 9332 0
9638 9630 9628 0
9949 9638 9628 0
9629 9946 9628 0
9946 9629 9622 0
9029 9950 9326 0
9628 9630 9631 0
9632 9951 9633 0
9633 9951 9329 0
9634 9048 9952 0
9950 9644 9326 0
9632 9335 9954 0
9335 9953 9954 0
9954 9951 9632 0
9634 9955 9639 0
9639 9955 9956 0
9640 9639 9956 0
9636 9643 9957 0
9644 9950 9959 0
9644 9959 9645 0
9645 9959 9330 0
9959 9339 9330 0
9960 9339 9959 0
9641 9640 9962 0
9963 9641 9962 0
9337 9641 9963 0
9337 9963 9646 0
9646 9963 9964 0
9646 9964 9647 0
9647 9965 9966 0
9957 9643 9647 0
9957 9647 9966 0
9339 9960 9340 0
9960 9967 9340 0
9068 9968 9069 0
9967 9341 9340 0
9969 9341 9967 0
9341 9969 9650 0
9969 9971 9650 0
9650 9971 9973 0
9651 9650 9973 0
9652 9651 9973 0
9652 9973 9976 0
9974 9652 9976 0
9075 9653 9977 0
9653 9345 9349 0
9345 9654 9349 0
9080 9978 9655 0
9075 9979 9080 0
9979 9978 9080 0
9977 9979 9075 0
9349 9977 9653 0
9980 9977 9349 0
9349 9352 9980 0
9352 9981 9980 0
9656 9981 9352 0
9655 9353 9350 0
9655 9982 9353 0
9982 9658 9353 0
9656 9657 9981 0
9662 9983 9663 0
9983 9984 9663 0
9660 9663 9985 0
9663 9984 9985 0
9986 9665 9664 0
9659 9670 9362 0
9659 9987 9670 0
9988 9095 9668 0
9662 9095 9989 0
9989 9095 9988 0
9983 9662 9989 0
9664 9660 9990 0
9986 9664 9990 0
9991 9665 9986 0
9676 9665 9991 0
9676 9097 9665 0
9992 9993 9666 0
9993 9661 9666 0
9666 9364 9992 0
9669 9670 9994 0
9995 9671 9672 0
9667 9671 9996 0
9668 9667 9996 0
9997 9668 9996 0
9992 9998 9993 0
9992 9677 9998 0
9992 9678 9677 0
9364 9678 9992 0
9999 9682 9681 0
9994 9681 9669 0
9999 9681 9994 0
10000 9683 9684 0
9995 9672 9683 0
9995 9683 10000 0
10001 9671 9995 0
9677 9676 10002 0
10003 9677 10002 0
9998 9677 10003 0
9690 9374 9688 0
9675 9685 10004 0
9685 9686 10004 0
10005 9689 9687 0
10006 10004 9692 0
10004 9686 9692 0
9694 10007 9693 0
9693 10007 10008 0
10005 9694 9689 0
10007 9694 10005 0
10000 9684 9695 0
10000 9695 10009 0
10009 9695 9696 0
9116 10006 9692 0
9116 9383 10006 0
10010 9382 9697 0
10008 9697 9693 0
10010 9697 10008 0
9696 9699 10011 0
9696 10011 10012 0
9691 10013 9700 0
9382 10014 9701 0
10014 10015 9701 0
10010 10014 9382 0
9699 9698 10016 0
10011 9699 10016 0
9702 10017 9118 0
9118 10017 9706 0
10013 9702 9700 0
10017 9702 10013 0
9385 9384 10018 0
9385 10018 10019 0
8840 9385 10020 0
9385 10019 10020 0
10020 9383 8840 0
9123 8843 10021 0
9123 10021 9705 0
10016 9698 9705 0
10016 9705 10022 0
10023 9390 9706 0
9703 9707 10024 0
10024 9707 10025 0
8339 8842 8843 0
9708 9390 10023 0
9384 9709 10026 0
10027 9710 9704 0
10028 9710 10027 0
10025 9707 10029 0
10030 8842 9394 0
9708 10031 9403 0
9708 10023 10031 0
10026 9709 9711 0
9720 10028 10032 0
9720 9713 10028 0
9713 9710 10028 0
10033 10029 9404 0
9404 10029 9707 0
10015 9714 9701 0
10034 9714 10015 0
9716 9403 10031 0
9718 10035 9711 0
10035 10026 9711 0
10033 9404 9727 0
9714 10036 9721 0
9714 10034 10036 0
10030 9394 9428 0
10037 9723 10038 0
9724 9723 10037 0
9725 9724 10037 0
9718 9725 10037 0
9727 9726 10033 0
9726 10039 10033 0
9721 10040 9728 0
10036 10040 9721 0
9417 10041 9729 0
9716 10042 9715 0
9735 10042 9716 0
10043 9737 10044 0
9733 9737 10043 0
10038 9733 10043 0
9723 9733 10038 0
9422 9739 9726 0
9739 10039 9726 0
9428 10045 10030 0
9715 10042 9734 0
9735 9734 10042 0
10044 9736 9735 0
9737 9736 10044 0
9738 9147 9720 0
