#!ascii version written be Caret
18484 36964
7807 7814 7805 0
7815 7810 7809 0
7816 7810 7815 0
7817 7809 7812 0
7815 7809 7817 0
7239 7813 7540 0
7815 7818 7816 0
7817 7818 7815 0
7234 7238 7819 0
7819 7238 7542 0
7820 7543 7540 0
7819 7542 7821 0
7822 7823 7824 0
7825 7822 7826 0
7826 7822 7824 0
7826 7253 7543 0
7826 7543 7825 0
7827 7548 7547 0
7828 7256 7548 0
7549 7821 7542 0
7829 7823 7830 0
7831 7829 7830 0
7550 7829 7264 0
7550 7824 7829 0
7824 7823 7829 0
7551 7824 7550 0
7826 7824 7551 0
7253 7826 7551 0
7832 7827 7554 0
7827 7547 7554 0
7261 7256 7828 0
7261 7828 7833 0
7834 7549 7005 0
7834 7005 7833 0
7833 7005 7261 0
7264 7829 7831 0
7264 7831 7835 0
7832 7554 7836 0
7836 7554 7270 0
7835 7558 7264 0
7837 7558 7835 0
7270 7838 7836 0
7275 7838 7270 0
7275 7276 7838 0
7277 7839 7276 0
7839 7277 7560 0
7558 7837 7278 0
7560 7840 7839 0
7560 7841 7840 0
7560 7561 7841 0
7841 7561 7842 0
7278 7843 7285 0
7563 7562 7844 0
7563 7845 7287 0
7844 7845 7563 0
7285 7843 7846 0
7289 7285 7846 0
7847 7289 7846 0
7564 7844 7562 0
7564 7848 7844 0
7848 7849 7845 0
7848 7845 7844 0
7287 7845 7849 0
7850 7287 7849 0
7287 7850 7290 0
7290 7851 6427 0
7852 7853 7854 0
7854 7291 7847 0
7291 7289 7847 0
7855 7856 7565 0
7857 7858 7859 0
7860 7857 7859 0
7852 7859 7858 0
7852 7858 7853 0
7854 7853 7568 0
7291 7861 7292 0
7291 7854 7861 0
7854 7568 7861 0
7565 7856 7862 0
7565 7862 7566 0
7566 7862 7863 0
7564 7567 7864 0
7567 7027 7864 0
7864 7027 7572 0
7858 7857 7865 0
7853 7858 7866 0
7568 7866 7569 0
7568 7853 7866 0
7861 7568 7570 0
7292 7861 7570 0
7566 7863 7300 0
7863 7029 7300 0
7867 7864 7572 0
7865 7868 7869 0
7870 7297 7306 0
7574 7867 7572 0
7573 7871 7574 0
7574 7871 7867 0
7871 7573 7308 0
7872 7869 7868 0
7865 7869 7872 0
7858 7865 7872 0
7578 7870 7306 0
7306 7575 7578 0
7308 7873 7871 0
7576 7873 7308 0
7576 7314 7873 0
7874 7872 7868 0
7866 7858 7875 0
7866 7875 7569 0
7875 7858 7872 0
7569 7875 7577 0
7876 7580 7581 0
7877 7875 7872 0
7577 7875 7877 0
7577 7877 7583 0
7583 7877 7878 0
7582 7583 7878 0
7582 7584 7577 0
7581 7587 7876 0
7584 7582 7879 0
7880 7584 7879 0
7585 7584 7880 0
7322 7585 7880 0
7322 7880 7588 0
7588 7880 7881 0
7881 7589 7588 0
7882 7589 7881 0
7883 7586 5815 0
5815 7592 7883 0
7589 7882 7333 0
7882 7884 7333 0
7596 7599 7883 0
7599 7885 7883 0
7592 7596 7883 0
7336 7886 7603 0
7603 7886 7887 0
7338 7888 7336 0
7336 7888 7886 0
7884 7338 7333 0
7888 7338 7884 0
7606 7885 7600 0
7600 7885 7599 0
7889 7593 7890 0
7593 7594 7890 0
7342 7891 7343 0
7887 7891 7602 0
7891 7342 7602 0
7603 7887 7602 0
7605 7892 7606 0
7604 7892 7605 0
7340 7601 7608 0
7609 7893 7894 0
7609 7607 7893 0
7893 7895 7894 0
7895 7896 7894 0
7889 7890 7896 0
7594 7610 7890 0
7604 7355 7892 0
7609 7894 7611 0
7361 7611 7894 0
7361 7894 7897 0
7896 7898 7894 0
7898 7897 7894 0
7890 7898 7896 0
7890 7610 7898 0
7354 7899 7355 0
7613 7899 7354 0
7613 7900 7901 0
7613 7901 7899 0
7901 7900 7902 0
7900 7903 7902 0
7362 7361 7897 0
7615 7362 7897 0
7898 7615 7897 0
7616 7615 7898 0
7610 7616 7898 0
7613 7904 7900 0
7903 7900 7904 0
7905 7903 7904 0
7905 7902 7903 0
7906 7620 7907 0
7613 7619 7904 0
7620 7904 7619 0
7905 7904 7620 0
7906 7905 7620 0
7620 7621 7908 0
7620 7908 7907 0
7621 7371 7908 0
7371 7622 7908 0
7622 7623 7909 0
7622 7909 7908 0
7623 7379 7909 0
7379 7624 7909 0
7624 7910 7909 0
7624 7625 7910 0
7625 7380 7910 0
7911 7626 7628 0
7628 7629 7912 0
7628 7912 7911 0
7913 7914 7915 0
7912 7629 7630 0
7631 7912 7630 0
7916 7912 7631 0
7916 7631 7632 0
7913 7915 7917 0
7915 7387 7917 0
7918 7387 7915 0
7914 7918 7915 0
7919 7920 7917 0
7921 7920 7919 0
7387 7919 7917 0
7388 7387 7918 0
7393 7388 7918 0
7393 7918 7922 0
7922 7918 7923 0
7924 7922 7923 0
7392 7921 7919 0
7387 7392 7919 0
7394 7393 7922 0
7924 7394 7922 0
7394 7924 7925 0
7921 7392 7926 0
7394 7925 6834 0
7395 6834 7925 0
7926 7392 7634 0
7926 7634 7927 0
7928 7927 7634 0
7636 7928 7634 0
7636 7637 7928 0
7402 7929 7640 0
7110 6511 6853 0
7403 7640 7930 0
7640 7929 7930 0
7931 7637 7400 0
7403 7932 7404 0
7933 7403 7930 0
7932 7403 7933 0
6853 7405 7934 0
7407 7404 7932 0
7407 7932 7935 0
7936 7937 7116 0
7400 7646 7931 0
7406 7646 7400 0
7938 7932 7933 0
7934 7405 7939 0
7935 7940 7642 0
7407 7935 7642 0
7932 7938 7935 0
7938 7940 7935 0
7941 7939 7405 0
7937 7413 7116 0
7646 7645 7942 0
7410 7642 7940 0
7410 7940 7943 0
7938 7943 7940 0
7944 7941 7120 0
7941 7405 7120 0
7647 7945 7648 0
7649 7648 7946 0
7648 7945 7946 0
7942 7645 7649 0
7946 7942 7649 0
7943 7947 7415 0
7410 7943 7415 0
7948 7947 7943 0
7938 7948 7943 0
7949 7950 7948 0
7944 7650 7950 0
7120 7650 7944 0
7651 7945 7647 0
7130 7415 7947 0
7130 7947 7951 0
7948 7951 7947 0
7950 7952 7948 0
7650 7421 7952 0
7950 7650 7952 0
7416 7413 7953 0
7416 7953 7954 0
7417 7416 7954 0
7652 7417 7954 0
7653 7652 7955 0
7651 7427 7663 0
7951 7956 7658 0
7130 7951 7658 0
7948 7956 7951 0
7952 7957 7948 0
7957 7956 7948 0
7421 7957 7952 0
7654 7653 7958 0
7959 7654 7958 0
7959 7656 7654 0
7959 7960 7656 0
7960 7660 7656 0
7658 7956 7664 0
7665 7664 7956 0
7666 7665 7956 0
7667 7666 7956 0
7957 7667 7956 0
7421 7667 7957 0
7660 7960 7961 0
7668 7660 7961 0
7962 7669 7961 0
7669 7668 7961 0
7669 7962 7670 0
7962 7963 7964 0
7670 7962 7673 0
7964 7965 7674 0
7964 7674 7962 0
7962 7674 7673 0
7966 7674 7965 0
7967 7966 7965 0
7674 7966 7968 0
7674 7968 7443 0
7969 7435 7675 0
7677 7970 7971 0
7676 7970 7677 0
7677 7971 7972 0
7678 7677 7972 0
7678 7973 7679 0
7974 7973 7678 0
7679 7973 7680 0
7442 7444 7975 0
7975 7444 7443 0
7445 7976 7452 0
7452 7976 7977 0
7452 7977 7676 0
7676 7977 7970 0
7974 7978 7979 0
7974 7979 7973 0
7680 7979 7682 0
7973 7979 7680 0
7980 7685 7684 0
7969 7675 7685 0
7980 7969 7685 0
7442 7975 7981 0
7445 7442 7981 0
7976 7445 7981 0
7682 7979 7978 0
7682 7978 7687 0
7687 7978 7982 0
7686 7687 7982 0
7684 7458 7983 0
7983 7458 7688 0
7980 7684 7983 0
7683 7686 7984 0
7688 7683 7984 0
7985 7688 7984 0
7689 7986 7987 0
7690 7689 7987 0
7691 7988 7689 0
7689 7988 7986 0
7989 7988 7463 0
7463 7988 7691 0
7690 7987 6253 0
7463 7692 7989 0
7692 7693 7989 0
6253 7987 7695 0
7469 7697 7696 0
7173 7699 7990 0
7173 7990 7697 0
7991 7472 7698 0
7991 7698 7992 0
7472 7991 7471 0
7177 7703 7699 0
7993 7484 7994 0
7992 7995 7991 0
7991 7995 7996 0
7471 7996 7701 0
7991 7996 7471 0
7478 7706 7477 0
7484 7993 7997 0
7484 7997 7707 0
7995 7994 7484 0
7704 7995 7484 0
7996 7995 7704 0
7701 7996 7704 0
7708 7998 7482 0
7708 7999 7998 0
7708 8000 7999 0
7708 8001 8000 0
8002 8003 7488 0
7709 8001 7708 0
8002 7711 7710 0
7488 7711 8002 0
7488 8004 7195 0
8004 7713 7195 0
8005 8006 8007 0
8008 8009 8006 0
8009 8007 8006 0
8009 8010 8011 0
8008 8010 8009 0
7490 7713 8012 0
8013 8014 8015 0
8013 8007 8014 0
8009 8016 8007 0
8016 8014 8007 0
8011 8016 8009 0
8017 8011 8010 0
8017 8018 8011 0
8018 8016 8011 0
7490 8012 7715 0
7719 7718 8019 0
7719 8019 8014 0
7719 8014 8016 0
8014 8019 8015 0
7720 7719 8016 0
7725 7720 8016 0
8020 8021 8018 0
8021 8016 8018 0
8021 8022 8023 0
8020 8022 8021 0
7200 7721 8024 0
7200 8024 7714 0
8025 8019 7718 0
7725 8016 8026 0
8026 8016 8021 0
8023 8026 8021 0
8027 8023 8022 0
7726 8024 7721 0
8028 8024 7726 0
7726 7735 8029 0
7726 8029 8028 0
7717 8030 8025 0
7717 8025 7718 0
7717 7734 8030 0
8031 8029 7735 0
7736 8031 7735 0
7737 8032 8033 0
7738 7737 8033 0
7737 8034 8032 0
7739 8034 7737 0
8034 7739 7740 0
8035 8034 7740 0
7741 7731 8036 0
8037 8036 7731 0
8037 7731 7742 0
8037 7742 7732 0
8038 8030 7734 0
8038 7734 7744 0
7745 8039 8031 0
7745 8031 7736 0
7738 8033 7210 0
7740 7747 8035 0
8035 7747 8040 0
7748 7741 8041 0
8041 7741 8042 0
8043 8042 8036 0
8042 7741 8036 0
8037 8043 8036 0
8038 7744 7750 0
8044 8038 7750 0
8023 8045 8046 0
7745 7751 8039 0
8039 7751 7758 0
8040 7747 7752 0
8047 8040 7752 0
7748 8041 7754 0
8048 8044 7756 0
8044 7750 7756 0
8046 8026 8023 0
8049 8047 7752 0
8041 7777 7754 0
8042 7777 8041 0
7756 7761 8048 0
8048 7761 7762 0
8048 7762 8050 0
7758 7514 8051 0
8049 7752 7760 0
8049 7760 8052 0
8052 7760 7765 0
8042 8053 7777 0
8053 8042 8043 0
7763 8050 7762 0
7725 8026 7767 0
8046 7767 8026 0
8051 7514 7769 0
8052 7765 7771 0
8054 8052 7771 0
8055 8053 8043 0
7763 8056 8057 0
7763 8057 8050 0
7772 7767 8058 0
8058 7767 8046 0
8059 8058 8046 0
7769 7773 8051 0
8051 7773 8060 0
8061 8054 7776 0
8054 7771 7776 0
8062 8057 8056 0
8063 8057 8062 0
7763 7780 8056 0
7772 8058 7781 0
8059 8064 8058 0
8064 7781 8058 0
8065 8064 8059 0
7773 8066 8060 0
7519 8066 7773 0
7782 8067 7519 0
7519 8067 8066 0
8068 8067 7782 0
8069 7774 7770 0
8069 8070 7774 0
8070 7518 7774 0
7776 7783 8061 0
8061 7783 8071 0
7783 7784 8071 0
7784 8072 8071 0
7777 8053 7786 0
8053 8073 7786 0
7786 8073 7787 0
7788 8074 8075 0
7788 7787 8074 0
7787 8073 8074 0
8063 8062 8076 0
8056 7780 8062 0
8064 7780 7781 0
7525 8068 7782 0
8077 7518 8070 0
7784 8078 8072 0
7790 8078 7784 0
8079 8078 7791 0
7791 8078 7790 0
7791 7788 8075 0
7791 8075 8079 0
8074 8080 8075 0
8080 8079 8075 0
8074 8081 8080 0
7525 8082 8068 0
7792 8082 7525 0
7529 8082 7792 0
8077 7789 7518 0
8079 8083 8078 0
8080 8083 8079 0
8084 8083 8080 0
8081 8084 8080 0
8076 8062 8085 0
8062 7780 8085 0
8064 8085 7780 0
8086 8087 8064 0
7529 7530 8082 0
7789 8088 7533 0
8087 8089 8064 0
7797 8089 8087 0
7795 7797 8087 0
8086 7795 8087 0
7795 8086 8090 0
7794 8091 7793 0
7533 8088 8092 0
7534 7533 8092 0
7226 7534 8093 0
7534 8092 8093 0
8093 7536 7226 0
8076 8085 8094 0
8089 8095 8064 0
8095 8085 8064 0
7797 7796 8095 0
8089 7797 8095 0
7795 8090 7798 0
7800 7798 8090 0
8096 7800 8090 0
7800 8096 8097 0
8095 8094 8085 0
8098 8094 8095 0
8099 8098 8095 0
8099 8095 7796 0
8099 7796 7798 0
7798 7800 8100 0
7801 7800 8097 0
7802 8100 7800 0
7801 8097 7808 0
7808 8101 8102 0
8097 8101 7808 0
7803 7794 7532 0
7799 8103 7538 0
8100 8099 7798 0
8100 7802 8104 0
7803 7535 8105 0
8105 7535 7537 0
7538 8103 8106 0
7804 7538 8106 0
7804 8107 7813 0
7804 8106 8107 0
8107 8108 7813 0
7802 7806 8104 0
8102 8109 7808 0
7810 8110 7811 0
7810 8109 8110 0
8111 8110 8109 0
8110 7812 7811 0
8112 7812 8110 0
7814 8113 7806 0
7807 8113 7814 0
7807 8114 8113 0
7807 7808 8114 0
8109 8114 7808 0
7816 8114 8109 0
8109 7810 7816 0
8112 8115 7817 0
8112 7817 7812 0
8112 8116 8115 0
8113 8117 8118 0
8113 8114 8117 0
7816 7818 8114 0
7818 8117 8114 0
7818 7817 8115 0
8119 7231 7234 0
7234 7819 8119 0
7823 8120 8121 0
7823 8121 7830 0
7822 8120 7823 0
7822 7825 8122 0
7818 8118 8117 0
8123 8118 7818 0
8115 8124 7818 0
8116 8125 8115 0
8125 8124 8115 0
8125 8126 8127 0
8116 8126 8125 0
8128 8119 7821 0
8119 7819 7821 0
8121 8129 7830 0
7825 8130 8122 0
7825 7543 8130 0
8130 7543 7820 0
8125 8131 8132 0
8125 8127 8131 0
8133 8127 8126 0
8133 8134 8127 0
8134 8131 8127 0
8134 7548 7827 0
8134 8133 7548 0
8135 7828 7548 0
7549 8128 7821 0
7549 7834 8128 0
7834 8136 8128 0
8137 7831 8129 0
7831 7830 8129 0
8131 8138 8132 0
8134 8138 8131 0
8139 8138 8134 0
8139 8134 7827 0
8139 7827 8140 0
8140 7827 7832 0
7833 7828 8141 0
8136 7834 7833 0
8141 8136 7833 0
7831 8142 7835 0
8137 8142 7831 0
8140 7832 7836 0
7838 8140 7836 0
7835 8142 7837 0
7276 7839 7838 0
7839 8143 8144 0
7839 7840 8143 0
7840 7841 8143 0
8143 7841 7842 0
8145 8143 7842 0
7842 7561 8145 0
8145 7561 7284 0
7278 8146 7843 0
7846 7852 8147 0
7846 7843 7852 0
8148 7852 7843 0
7846 8147 7847 0
8149 7849 7848 0
8149 8150 7849 0
8150 7850 7849 0
7290 7850 8150 0
7290 8150 7851 0
7852 8151 7859 0
8147 7852 7854 0
7847 8147 7854 0
8152 7855 7565 0
8152 8153 7855 0
8153 8154 7855 0
7856 8155 8156 0
7856 8154 8155 0
7856 7855 8154 0
8157 8158 8155 0
8158 8156 8155 0
7564 8149 7848 0
8159 8160 8161 0
8160 7857 7860 0
8160 7860 8161 0
8161 7860 8151 0
8151 7860 7859 0
8152 7565 8162 0
7856 8156 7862 0
7863 7862 8156 0
8158 7863 8156 0
8158 7029 7863 0
8158 8157 7029 0
7564 7864 8149 0
7864 8163 8149 0
8160 8159 8164 0
7857 8164 7865 0
8160 8164 7857 0
7297 8165 8162 0
7565 7297 8162 0
7029 8157 8166 0
7864 7867 8163 0
7868 8159 8167 0
8164 8159 7868 0
7865 8164 7868 0
8168 8165 7870 0
7870 8165 7297 0
7867 7871 8163 0
7871 8169 8170 0
7871 8170 8163 0
7874 7868 8167 0
8168 7870 7578 0
7029 8166 7590 0
7590 7037 7029 0
7871 7873 8169 0
7873 7314 8169 0
8169 7314 7039 0
7039 7580 8171 0
7578 8172 8173 0
7578 7320 8172 0
7876 8171 7580 0
8174 7874 8167 0
8175 8174 8167 0
7874 8176 7872 0
7874 8174 8176 0
8176 7877 7872 0
7877 8177 7878 0
7878 8177 7582 0
7320 7586 8172 0
8174 8175 8178 0
8176 8174 8178 0
7877 8176 8178 0
8177 7877 8178 0
7582 8177 7879 0
7880 7879 8179 0
8180 8179 8181 0
8180 7880 8179 0
7880 8182 7881 0
8180 8182 7880 0
7881 8182 7882 0
7587 7591 7876 0
8183 8180 8181 0
8184 8183 8181 0
8182 8180 8183 0
8172 8185 8173 0
7586 7883 8185 0
8172 7586 8185 0
7328 7590 8186 0
7328 8186 7329 0
8187 7331 7329 0
7591 7593 7876 0
7876 7593 8188 0
7886 8189 8190 0
8191 7886 8190 0
8184 8190 8189 0
8184 8189 8183 0
8182 8183 8192 0
8192 8183 8189 0
7882 8192 7884 0
8182 8192 7882 0
8193 8194 8173 0
7883 7885 8185 0
7331 8187 7597 0
8195 7601 7335 0
8191 8196 7886 0
8196 7887 7886 0
8189 7886 7888 0
8192 8189 7888 0
7884 8192 7888 0
8197 8193 8173 0
7885 7606 8197 0
7885 8197 8185 0
8185 8197 8173 0
8198 8188 7889 0
7889 8188 7593 0
7891 8199 7343 0
8199 7891 7887 0
7606 8193 8197 0
7606 7892 8193 0
7892 8200 8193 0
7893 7607 7608 0
7893 7608 8201 0
8202 8203 7895 0
8202 7895 8201 0
8201 7895 7893 0
7896 7895 8203 0
8198 7896 8203 0
7889 7896 8198 0
7892 7355 8200 0
8200 7355 8204 0
7355 7899 8204 0
7901 8205 7899 0
7902 8205 7901 0
7902 8206 8205 0
7902 7905 8206 0
7906 8206 7905 0
8207 8206 7906 0
7908 8208 7907 0
7908 8209 8208 0
7908 7909 8209 0
8210 7910 7380 0
7626 8210 7380 0
7626 8211 8210 0
8211 8212 8210 0
7911 8212 8211 0
7911 8211 7626 0
7916 7632 8213 0
8214 8215 8216 0
8217 8215 8214 0
7913 8214 8216 0
8213 7632 8218 0
7917 8217 8214 0
7917 7920 8217 0
7913 7917 8214 0
7914 8219 7918 0
7923 7918 8219 0
8220 7923 8219 0
7920 7921 8217 0
8217 7921 8221 0
7923 7925 7924 0
7395 8222 6841 0
7921 7926 8221 0
8221 7926 8223 0
7632 7633 8218 0
8218 7633 8224 0
8223 7926 7927 0
8225 8223 7927 0
6841 8226 7638 0
8224 7633 7635 0
8227 8224 7635 0
8225 7927 7928 0
7397 8228 7635 0
8228 8227 7635 0
7928 7637 8225 0
7397 7109 8228 0
8228 7109 7639 0
7110 8229 7639 0
8230 7930 7929 0
7933 7930 8230 0
8230 8231 7933 0
8231 8232 7933 0
8232 8231 8233 0
7933 8234 7938 0
8232 8234 7933 0
8233 8235 8232 0
8235 8234 8232 0
8233 8236 8235 0
7939 7941 7934 0
7931 7646 8237 0
7646 7942 8237 0
8238 7931 8237 0
8235 7949 8234 0
7944 7949 8236 0
8236 7949 8235 0
7941 7944 8236 0
7945 8239 7946 0
8240 8239 7945 0
7946 8239 8241 0
7946 8241 7942 0
7942 8241 8237 0
7938 8234 7948 0
7949 7948 8234 0
7944 7950 7949 0
7651 8240 7945 0
7651 8242 8240 0
8239 8240 8243 0
8244 8241 8239 0
8243 8244 8239 0
7413 7937 7953 0
8240 8242 8245 0
8244 8243 8245 0
8245 8243 8240 0
8242 7663 8245 0
7651 7663 8242 0
8246 7955 7652 0
7653 7955 8246 0
7653 8246 7958 0
7959 7958 8247 0
7958 8246 8247 0
8247 7960 7959 0
8248 7960 8247 0
7663 7435 8245 0
8244 8245 7435 0
8249 7961 7960 0
8249 7960 8248 0
7961 8249 7962 0
7663 7142 7435 0
7962 8249 7963 0
8250 7964 7963 0
8250 7963 8249 0
7964 8250 7965 0
8250 8251 7965 0
8251 7967 7965 0
8252 7435 7969 0
8253 7966 7967 0
8253 7967 8254 0
8254 7967 8251 0
8253 7968 7966 0
7971 7970 8255 0
7971 8256 7972 0
8255 8256 7971 0
7972 8256 7678 0
8257 7968 8253 0
8257 7443 7968 0
8257 8258 7443 0
8258 7975 7443 0
8255 7977 8259 0
7970 7977 8255 0
8259 8256 8255 0
7678 8260 7974 0
8260 8261 7974 0
7974 8261 7978 0
8262 7969 7980 0
7975 8258 8263 0
7981 7975 8263 0
7976 7981 8264 0
7976 8264 8265 0
8259 7977 7976 0
8259 7976 8265 0
8256 8259 8265 0
8261 8260 8266 0
7978 8261 8267 0
8261 8266 8267 0
8267 7982 7978 0
8262 7983 7688 0
8262 7980 7983 0
8268 7982 8267 0
7686 7982 8268 0
7686 8268 7984 0
7984 8268 8269 0
7985 7984 8269 0
7986 7988 7989 0
7986 8270 8271 0
7986 8271 7987 0
7989 8270 7986 0
7693 7694 7989 0
7987 8271 7695 0
7694 7696 8272 0
7696 7697 8272 0
7695 8273 7698 0
8274 7992 8273 0
7992 7698 8273 0
7997 7993 8275 0
7994 8276 7993 0
7994 8277 8276 0
8274 7994 7995 0
7992 8274 7995 0
7706 8278 7477 0
7997 8275 7707 0
7706 8279 8278 0
7705 8279 7706 0
7482 8279 7705 0
7482 8280 8279 0
7482 7998 8280 0
7998 8281 8280 0
7998 8282 8281 0
7999 8282 7998 0
8000 8282 7999 0
8001 8282 8000 0
8283 8284 8285 0
8001 8286 8282 0
8287 8003 8288 0
8288 8003 8002 0
7488 8289 8290 0
8003 8289 7488 0
8003 8287 8289 0
8291 8284 8283 0
8292 8284 8291 0
8293 8283 8285 0
8293 8294 8283 0
8294 8291 8283 0
8294 8295 8005 0
8293 8295 8294 0
8295 8296 8005 0
8288 8002 7710 0
7488 8290 8004 0
8290 8297 8004 0
8292 8298 8299 0
8292 8291 8298 0
8291 8294 8298 0
8005 8298 8294 0
8005 8296 8006 0
7713 8004 8297 0
8007 8299 8298 0
8007 8013 8299 0
8005 8007 8298 0
8006 8296 8008 0
8008 8296 8010 0
7712 8300 7709 0
7712 7487 8300 0
7713 8297 8012 0
8010 8296 8301 0
8017 8010 8301 0
8018 8017 8302 0
8017 8301 8302 0
8303 7714 8024 0
8015 8019 8304 0
8018 8302 8020 0
8302 8305 8020 0
8020 8305 8022 0
8306 8028 8029 0
8307 7724 7723 0
8308 8304 8019 0
8308 8019 8309 0
8309 8019 8025 0
8022 8305 8310 0
8027 8022 8310 0
8311 8312 8313 0
8312 8314 8313 0
8313 8314 8315 0
7724 8307 7732 0
8307 8316 7732 0
8025 8317 8309 0
8030 8317 8025 0
8023 8027 8045 0
8306 8029 8031 0
8032 8311 8318 0
8032 8318 8033 0
8034 8311 8032 0
8312 8311 8034 0
8035 8312 8034 0
8035 8319 8312 0
8319 8314 8312 0
8320 8315 8314 0
8319 8320 8314 0
8316 8037 7732 0
8321 8037 8316 0
8038 8322 8030 0
8031 8039 8306 0
8319 8040 8323 0
8035 8040 8319 0
8324 8320 8319 0
8324 8319 8323 0
8321 8043 8037 0
8038 8044 8322 0
8325 8039 7758 0
8047 8323 8040 0
8047 8326 8323 0
8326 8324 8323 0
8327 8328 8324 0
8326 8327 8324 0
8044 8048 8322 0
8048 8329 8322 0
8330 8045 8331 0
7758 8051 8325 0
8332 8333 7210 0
8326 8049 8334 0
8047 8049 8326 0
8327 8326 8335 0
8335 8326 8334 0
8327 8335 8336 0
8329 8050 8337 0
8048 8050 8329 0
8046 8045 8338 0
8338 8045 8330 0
8052 8334 8049 0
8052 8339 8334 0
8339 8335 8334 0
8340 8336 8335 0
8339 8340 8335 0
8341 8329 8337 0
8338 8342 8059 0
8046 8338 8059 0
8343 8342 8338 0
7210 8333 7770 0
8339 8052 8054 0
8339 8054 8340 0
8340 8054 8344 0
8345 8346 8055 0
8345 8055 8043 0
8050 8057 8337 0
8057 8347 8337 0
8347 8341 8337 0
8065 8059 8342 0
8065 8342 8348 0
8348 8342 8343 0
8349 8350 8060 0
8350 8051 8060 0
7770 8333 8069 0
8054 8351 8344 0
8061 8351 8054 0
8061 8352 8351 0
8346 8353 8053 0
8055 8346 8053 0
8354 8346 8345 0
8354 8355 8346 0
8355 8353 8346 0
8355 8356 8357 0
8354 8356 8355 0
8356 8358 8357 0
8057 8063 8347 0
8063 8359 8347 0
8065 8348 8064 0
8060 8066 8349 0
8067 8349 8066 0
8360 8349 8067 0
8360 8067 8068 0
8360 8068 8361 0
8061 8071 8352 0
8352 8071 8072 0
8352 8072 8362 0
8362 8072 8363 0
8053 8353 8073 0
8074 8073 8353 0
8355 8074 8353 0
8074 8355 8364 0
8364 8355 8357 0
8365 8357 8358 0
8364 8357 8365 0
8063 8076 8359 0
8359 8076 8366 0
8070 8367 8077 0
8072 8368 8363 0
8078 8368 8072 0
8078 8369 8368 0
8364 8081 8074 0
8364 8365 8081 0
8076 8370 8366 0
8086 8064 8371 0
8367 7789 8077 0
8372 7789 8367 0
8078 8083 8369 0
8369 8083 8373 0
8084 8373 8083 0
8084 8081 8374 0
8081 8365 8374 0
8086 8371 8090 0
7793 8091 7530 0
8375 8088 8372 0
8372 8088 7789 0
8084 8376 8373 0
8374 8376 8084 0
8096 8090 8377 0
8088 8375 8092 0
8093 8092 8375 0
8378 8093 8375 0
8378 7536 8093 0
8378 8379 7536 0
8379 8380 7536 0
8370 8076 8094 0
8097 8377 8381 0
8097 8096 8377 0
7794 8382 8091 0
8380 7799 7536 0
8098 8383 8094 0
8094 8383 8370 0
8098 8384 8383 0
8097 8381 8101 0
8102 8101 8385 0
8101 8381 8385 0
8382 7794 8386 0
8386 7794 7803 0
7799 8387 8103 0
8098 8099 8384 0
8102 8385 8109 0
8385 8111 8109 0
8385 8388 8111 0
8388 8389 8111 0
8386 7803 8105 0
8390 8386 8105 0
8103 8387 8106 0
8106 8387 8107 0
8387 8108 8107 0
8110 8111 8389 0
8389 8112 8110 0
8391 8112 8389 0
8105 7537 8390 0
8113 8392 7806 0
8391 8116 8112 0
8120 8393 8121 0
7813 8394 7540 0
8116 8391 8395 0
7537 7231 8396 0
8396 7231 8119 0
8122 7820 8397 0
8394 7820 7540 0
8397 7820 8394 0
8118 8398 8113 0
8123 8398 8118 0
8123 7818 8399 0
8116 8395 8400 0
8126 8116 8400 0
8119 8128 8396 0
8396 8128 8401 0
8121 8402 8129 0
8393 8402 8121 0
7820 8122 8130 0
8123 8403 8398 0
8399 8403 8123 0
8404 8405 8399 0
8124 8404 8399 0
8124 8399 7818 0
8404 8124 8406 0
8124 8125 8132 0
8406 8124 8132 0
8126 8400 8407 0
8126 8407 8133 0
7828 8135 8408 0
8409 8401 8136 0
8136 8401 8128 0
8129 8402 8137 0
8139 8410 8138 0
8138 8410 8132 0
8410 8139 8140 0
8411 8410 8140 0
8141 7828 8408 0
8409 8141 8408 0
8136 8141 8409 0
8412 8411 8140 0
8140 7838 8412 0
7278 8413 8146 0
8414 8415 8416 0
8417 8418 8414 0
8419 8420 8421 0
8422 8419 8421 0
8420 7852 8148 0
8420 8148 8421 0
8421 8148 8423 0
8146 8148 7843 0
8423 8148 8146 0
8424 8415 8425 0
8426 8425 8415 0
8414 8427 8415 0
8427 8426 8415 0
8155 8427 8418 0
8418 8427 8414 0
8155 8417 8157 0
8155 8418 8417 0
8150 8428 8429 0
8149 8428 8150 0
8150 8429 7851 0
8419 8430 8431 0
8151 8420 8431 0
8420 8419 8431 0
7852 8420 8151 0
8153 8152 8426 0
8426 8152 8425 0
8154 8153 8426 0
8427 8154 8426 0
8155 8154 8427 0
8149 8432 8428 0
8430 8159 8161 0
8151 8430 8161 0
8431 8430 8151 0
8424 8425 8433 0
8425 8152 8433 0
8163 8432 8149 0
8152 8434 8433 0
8162 8165 8434 0
8152 8162 8434 0
8435 8436 8166 0
8157 8435 8166 0
8437 8436 8435 0
8165 8168 8434 0
8434 8168 8433 0
8166 8436 8438 0
8438 8436 8437 0
8438 8437 8439 0
8170 8440 8163 0
8163 8440 8432 0
8440 8170 8169 0
8441 8440 8169 0
8168 8442 8433 0
8168 7578 8442 0
8166 8438 7590 0
8169 8443 8441 0
8443 8169 7039 0
8444 8445 8433 0
8446 8445 8444 0
8447 8444 8433 0
8442 8447 8433 0
7578 8173 8448 0
7578 8448 8442 0
8444 8449 8446 0
8447 8449 8444 0
8450 8449 8447 0
8450 8447 8451 0
8447 8442 8451 0
8448 8451 8442 0
8452 8453 7590 0
8171 7876 8454 0
8167 8455 8175 0
8451 8194 8456 0
8451 8448 8194 0
8448 8173 8194 0
8175 8455 8457 0
8178 8175 8457 0
8177 8178 8457 0
7879 8177 8458 0
8177 8457 8458 0
8179 7879 8458 0
8458 8181 8179 0
8459 8181 8458 0
8460 8184 8459 0
8184 8181 8459 0
8461 8456 8194 0
7590 8187 8186 0
8186 8187 7329 0
7876 8188 8454 0
8460 8462 8190 0
8462 8191 8190 0
8184 8460 8190 0
8194 8193 8461 0
7335 7597 8195 0
8454 8188 8463 0
8462 8196 8191 0
7601 8195 8464 0
7601 8464 8465 0
8202 8466 8203 0
8463 8198 8466 0
8466 8198 8203 0
8188 8198 8463 0
8200 8461 8193 0
7601 8465 7608 0
8202 7608 8465 0
8201 7608 8202 0
7899 8200 8204 0
8467 7899 8205 0
8468 8467 8205 0
8468 8205 8469 0
8205 8206 8469 0
8207 8470 8206 0
8206 8470 8469 0
8207 7906 8471 0
8207 8471 8470 0
7906 8472 8471 0
7906 7907 8472 0
8472 7907 8208 0
8208 8473 8472 0
8208 8474 8473 0
8208 8209 8474 0
7909 8474 8209 0
8475 8474 7909 0
7909 8476 8475 0
7909 7910 8476 0
8477 7910 8210 0
8212 8477 8210 0
8478 8477 8212 0
8212 8479 8480 0
8212 8480 8478 0
7088 7383 6812 0
8212 7911 8479 0
7912 8479 7911 0
8481 8479 7916 0
7916 8479 7912 0
8213 8482 8481 0
7916 8213 8481 0
8483 8216 8215 0
7913 8216 8483 0
7914 7913 8483 0
8484 7914 8485 0
8484 8219 7914 0
8486 8487 8488 0
8486 8489 8487 0
8489 8215 8487 0
8215 8217 8487 0
7923 8220 8490 0
8221 8488 8487 0
8491 8488 8221 0
8487 8217 8221 0
7923 8490 7925 0
8490 8492 7925 0
7925 8492 7395 0
8492 8222 7395 0
8226 8222 8492 0
8221 8493 8491 0
8493 8221 8494 0
8222 8226 6841 0
8494 8221 8223 0
8223 8225 8495 0
8223 8495 8496 0
8223 8496 8494 0
8497 8498 8227 0
8498 8499 8227 0
8499 8224 8227 0
8495 8225 7637 0
8227 8228 8497 0
8495 7637 8500 0
8228 7639 8497 0
7113 8501 7402 0
8502 7113 8503 0
8501 7113 8502 0
8229 7110 8504 0
8501 8505 7402 0
8502 8506 8501 0
8506 8505 8501 0
8502 8507 8506 0
7110 6853 8504 0
7402 8505 7929 0
7929 8505 8508 0
8508 8505 8506 0
8507 8508 8506 0
8509 8504 6853 0
8510 8511 8512 0
8510 8513 8514 0
8511 8510 8514 0
8513 8515 8514 0
8513 7936 8515 0
7936 7116 8515 0
8516 8510 8512 0
8517 8516 8512 0
8513 8510 8516 0
7637 7931 8500 0
7929 8508 8230 0
8507 8518 8508 0
8518 8230 8508 0
8519 8518 8507 0
8509 8520 8519 0
8520 8518 8519 0
6853 7934 8520 0
8509 6853 8520 0
8517 8521 8516 0
8513 8516 8522 0
8513 8522 7936 0
8231 8230 8523 0
8523 8230 8518 0
8524 8525 8526 0
8522 8516 8521 0
7936 8522 7937 0
8231 8523 8233 0
8518 8233 8523 0
7934 7941 8518 0
7934 8518 8520 0
7931 8238 8500 0
7941 8236 8233 0
8518 7941 8233 0
8527 8525 8524 0
8521 8525 8527 0
8500 8238 8237 0
8522 8521 8528 0
8528 8521 8527 0
8237 8241 8529 0
8527 8524 8530 0
8528 8527 8530 0
8531 8528 8530 0
8522 8528 8531 0
8241 8244 8529 0
8529 8244 8532 0
7937 8533 7953 0
7953 8533 8534 0
7954 7953 8534 0
7652 8534 8535 0
7652 7954 8534 0
7652 8536 8246 0
8246 8537 8247 0
8536 8537 8246 0
8247 8537 8248 0
8538 8244 7435 0
8248 8537 8249 0
8539 8538 7435 0
8536 8540 8537 0
8537 8540 8249 0
8541 8542 8540 0
8249 8542 8250 0
8540 8542 8249 0
7435 8252 8543 0
8544 8542 8541 0
8545 8544 8541 0
8250 8542 8546 0
8542 8544 8546 0
8250 8546 8251 0
8544 8547 8548 0
8544 8548 8546 0
8251 8548 8254 0
8546 8548 8251 0
8549 8252 7969 0
8253 8548 8547 0
8253 8254 8548 0
8256 8550 7678 0
8262 8551 7969 0
7969 8551 8549 0
8258 8257 8263 0
7981 8263 8552 0
8263 8257 8552 0
8553 8264 8552 0
8264 7981 8552 0
8553 8265 8264 0
8265 8550 8256 0
8265 8554 8550 0
7678 8550 8555 0
8550 8554 8555 0
7678 8556 8260 0
8555 8556 7678 0
8260 8556 8266 0
8266 8556 8557 0
8557 8267 8266 0
8268 8558 8269 0
8262 7688 7985 0
8262 7985 8559 0
8559 7985 8269 0
8551 8262 8559 0
8268 8267 8557 0
8558 8268 8557 0
8270 8560 8561 0
8271 8270 8561 0
7989 8560 8270 0
7989 8562 8560 0
7694 8562 7989 0
8563 8562 7694 0
8271 8561 7695 0
8561 8273 7695 0
8272 8563 7694 0
8272 7697 8563 0
7697 8564 8565 0
7697 7990 8564 0
7990 8566 8564 0
8566 7990 7699 0
8567 8568 8277 0
8567 8277 7994 0
8274 8567 7994 0
7699 8569 8566 0
7703 8570 7699 0
7699 8570 8569 0
7993 8571 8275 0
8572 8571 8276 0
8571 7993 8276 0
8277 8572 8276 0
8568 8572 8277 0
7703 8573 8570 0
7477 8573 7703 0
8278 8573 7477 0
8278 8574 8573 0
8278 8279 8574 0
8279 8575 8574 0
8279 8576 8575 0
8280 8576 8279 0
8281 8576 8280 0
8281 8282 8576 0
8577 8578 8579 0
8580 8578 8577 0
8282 8581 8582 0
8577 8579 8583 0
8284 8584 8285 0
8284 8579 8584 0
8284 8583 8579 0
8578 8584 8579 0
8286 8581 8282 0
8585 8287 8288 0
8583 8284 8586 0
8586 8284 8292 0
8285 8584 8293 0
8001 8587 8286 0
8587 8001 7709 0
8585 8288 7710 0
8297 8290 8588 0
8586 8292 8299 0
8589 8586 8299 0
7709 8590 8587 0
8299 8013 8589 0
8303 7487 7714 0
8297 8588 8012 0
8296 8591 8592 0
8296 8592 8301 0
8301 8592 8302 0
8302 8592 8593 0
8305 8302 8593 0
8305 8593 8594 0
8024 8595 8303 0
8024 8028 8595 0
8309 8596 8597 0
8309 8597 8308 0
8305 8594 8598 0
8305 8598 8310 0
8310 8598 8027 0
8027 8598 8599 0
8318 8311 8600 0
8313 8601 8311 0
8601 8313 8315 0
8602 8601 8315 0
8603 8316 8307 0
8309 8317 8596 0
8317 8030 8596 0
8030 8604 8596 0
8045 8599 8605 0
8045 8027 8599 0
8605 8606 8045 0
8318 8600 8033 0
8324 8602 8320 0
8602 8315 8320 0
8316 8603 8321 0
8030 8322 8604 0
8322 8607 8604 0
8606 8331 8045 0
8033 8600 7210 0
8608 8043 8321 0
8322 8609 8610 0
8607 8322 8610 0
8611 8610 8609 0
8611 8609 8612 0
8612 8609 8322 0
8612 8613 8614 0
8611 8612 8614 0
8614 8613 8615 0
8330 8331 8606 0
8606 8616 8330 0
8051 8617 8325 0
8329 8618 8322 0
8618 8612 8322 0
8613 8612 8618 0
8330 8619 8338 0
8619 8330 8616 0
8336 8340 8620 0
8341 8618 8329 0
8621 8615 8613 0
8618 8621 8613 0
8338 8619 8343 0
8619 8622 8343 0
8620 8340 8344 0
8618 8347 8359 0
8341 8347 8618 0
8359 8621 8618 0
8348 8343 8622 0
8350 8349 8623 0
8349 8360 8623 0
8623 8360 8361 0
8624 8623 8361 0
8344 8351 8620 0
8620 8351 8625 0
8351 8352 8625 0
8625 8352 8362 0
8626 8625 8362 0
8345 8627 8628 0
8354 8345 8628 0
8356 8354 8629 0
8354 8628 8629 0
8629 8358 8356 0
8630 8358 8629 0
8064 8348 8622 0
8361 8068 8624 0
8069 8333 8631 0
8631 8070 8069 0
8626 8362 8363 0
8632 8365 8630 0
8630 8365 8358 0
8633 8367 8631 0
8631 8367 8070 0
8363 8368 8634 0
8368 8369 8634 0
8367 8633 8372 0
8633 8635 8372 0
8369 8636 8634 0
8373 8636 8369 0
8365 8632 8374 0
8637 8638 8632 0
8638 8637 8639 0
8370 8640 8366 0
8082 7530 8641 0
8091 8642 7530 0
8372 8635 8643 0
8372 8643 8375 0
8375 8643 8378 0
8643 8379 8378 0
8644 8379 8643 0
8373 8645 8636 0
8376 8645 8373 0
8374 8645 8376 0
8374 8646 8645 0
8374 8632 8646 0
8646 8632 8638 0
8639 8646 8638 0
8370 8647 8640 0
8090 8648 8377 0
8091 8649 8642 0
8644 8380 8379 0
8644 8650 8380 0
8646 8651 8645 0
8370 8652 8647 0
8377 8648 8653 0
8381 8377 8653 0
8382 8649 8091 0
8380 8650 7799 0
8650 8654 7799 0
8383 8652 8370 0
8655 8652 8383 0
8381 8653 8385 0
8656 8649 8382 0
8382 8386 8656 0
8654 8387 7799 0
8099 8657 8384 0
8099 8100 8657 0
8120 7822 8658 0
8387 8654 8659 0
8659 8108 8387 0
8386 8390 8656 0
8108 8659 7813 0
8659 8660 7813 0
8389 8661 8662 0
8391 8389 8662 0
8391 8662 8663 0
7822 8122 8664 0
8665 8394 8660 0
8394 7813 8660 0
8391 8663 8395 0
8397 8664 8122 0
8665 8664 8397 0
8394 8665 8397 0
8113 8398 8392 0
8666 7537 8401 0
7537 8396 8401 0
8403 8667 8398 0
8405 8667 8399 0
8399 8667 8403 0
8407 8400 8668 0
8407 8668 8133 0
7548 8133 8135 0
8408 8135 8669 0
8666 8401 8409 0
8666 8409 8669 0
8669 8409 8408 0
8404 8406 8405 0
8132 8410 8670 0
8671 8132 8670 0
8410 8411 8670 0
8132 8672 8406 0
8673 8672 8132 0
8671 8673 8132 0
8673 8671 8674 0
8671 8670 8674 0
8411 8412 8674 0
8670 8411 8674 0
8412 8673 8674 0
8412 7838 8673 0
7837 8413 7278 0
8675 8676 8677 0
8677 8678 8679 0
8676 8678 8677 0
8678 8680 8679 0
8413 8681 8146 0
8414 8416 8675 0
8677 8414 8675 0
8414 8677 8682 0
8682 8677 8679 0
8683 8679 8680 0
8682 8679 8683 0
8684 8685 8686 0
8415 8684 8675 0
8675 8684 8686 0
8416 8415 8675 0
8414 8682 8417 0
8417 8682 8683 0
8687 8419 8422 0
8421 8688 8422 0
8422 8688 8687 0
8681 8688 8423 0
8688 8421 8423 0
8146 8681 8423 0
8684 8415 8424 0
7851 7288 6427 0
8159 8689 8690 0
8159 8690 8167 0
8430 8689 8159 0
8687 8689 8430 0
8419 8687 8430 0
8435 8417 8437 0
8435 8157 8417 0
8437 8417 8439 0
8684 8691 8692 0
8433 8691 8424 0
8424 8691 8684 0
8432 8693 8694 0
8438 8439 8695 0
8440 8693 8432 0
8696 8693 8440 0
8696 8440 8441 0
8696 8441 8697 0
8433 8445 8698 0
8691 8433 8698 0
8438 8699 7590 0
8700 8698 8445 0
8700 8445 8446 0
8452 7590 8699 0
7039 8171 8443 0
8446 8701 8700 0
8449 8701 8446 0
8450 8701 8449 0
8171 8454 8443 0
8451 8702 8701 0
8451 8701 8450 0
8451 8456 8702 0
8457 8455 8703 0
8457 8704 8458 0
8704 8705 8458 0
8458 8705 8459 0
8453 8706 7590 0
8457 8703 8707 0
8704 8457 8707 0
8708 8704 8707 0
8460 8704 8709 0
8460 8705 8704 0
8704 8708 8709 0
8459 8705 8460 0
8187 7590 8706 0
8709 8462 8460 0
8710 8462 8709 0
8456 8461 8702 0
8187 8711 7597 0
7597 8711 8195 0
8195 8711 8712 0
8710 8196 8462 0
8195 8712 8464 0
8465 8464 8712 0
8200 7899 8713 0
8200 8713 8461 0
8713 7899 8467 0
7343 8199 7088 0
8468 8714 8467 0
8468 8715 8714 0
8715 8470 8716 0
8468 8469 8715 0
8470 8715 8469 0
8470 8717 8716 0
8470 8471 8717 0
8471 8472 8717 0
8472 8473 8718 0
8718 8473 8719 0
8473 8474 8719 0
8475 8720 8474 0
8474 8720 8719 0
8720 8475 8476 0
8476 8721 8720 0
8476 8722 8721 0
8478 8723 8724 0
8725 8478 8724 0
8476 7910 8722 0
8477 8722 7910 0
8723 8478 8480 0
8724 8723 8726 0
8726 8723 8480 0
8724 8726 8727 0
8481 8480 8479 0
8726 8480 8481 0
8726 8481 8482 0
8726 8482 8727 0
8483 8728 8485 0
8482 8213 8727 0
8727 8213 8729 0
8485 7914 8483 0
8484 8485 8730 0
8489 8731 8732 0
8489 8486 8731 0
8215 8489 8732 0
8733 8215 8732 0
8483 8215 8733 0
8484 8730 8219 0
8730 8734 8219 0
8219 8734 8220 0
8734 8490 8220 0
8735 8486 8488 0
8736 8490 8734 0
8213 8218 8729 0
8490 8736 8737 0
8490 8737 8738 0
8488 8491 8735 0
8490 8738 8492 0
8738 8226 8492 0
8738 8739 8226 0
8494 8740 8493 0
8740 8494 8496 0
8740 8496 8741 0
8741 8496 8742 0
8743 8218 8224 0
8495 8742 8496 0
8744 8742 8495 0
8745 7638 8226 0
8498 8746 8747 0
8497 8746 8498 0
8748 8743 8499 0
8748 8499 8747 0
8747 8499 8498 0
8224 8499 8743 0
8746 8497 7639 0
8495 8500 8744 0
7638 8749 7401 0
8750 8751 8752 0
7639 8229 8753 0
7639 8753 8751 0
8751 8753 8752 0
8749 8754 7401 0
8755 8754 8749 0
7401 8754 7113 0
8503 7113 8754 0
8503 8754 8755 0
8755 8756 8503 0
8756 8502 8503 0
8757 8758 8755 0
8758 8756 8755 0
8753 8758 8757 0
8229 8504 8758 0
8753 8229 8758 0
8756 8507 8502 0
8519 8507 8756 0
8519 8756 8759 0
8759 8756 8758 0
7116 6182 8515 0
6182 8760 8515 0
8509 8519 8759 0
8758 8509 8759 0
8504 8509 8758 0
8511 8761 8762 0
8512 8511 8762 0
8514 8763 8511 0
8511 8763 8761 0
8760 8514 8515 0
8763 8514 8760 0
8525 8764 8765 0
8525 8765 8526 0
8525 8766 8764 0
8766 8517 8762 0
8517 8512 8762 0
8525 8521 8766 0
8517 8766 8521 0
8529 8500 8237 0
8522 8767 7937 0
8530 8767 8531 0
8767 8522 8531 0
8767 8768 7937 0
7937 8768 8533 0
8769 8534 8533 0
8769 8533 8770 0
8534 8769 8535 0
8771 8769 8770 0
8772 8771 8770 0
8769 8771 8535 0
7652 8773 8536 0
8774 8538 8539 0
8774 8539 8775 0
8773 7652 8776 0
8540 8773 8777 0
8540 8536 8773 0
8543 8539 7435 0
8778 8541 8777 0
8777 8541 8540 0
8779 8544 8545 0
8779 8545 8541 0
8544 8779 8547 0
8549 8780 8252 0
8547 8779 8781 0
8549 8551 8782 0
8780 8549 8782 0
8253 8783 8257 0
8257 8783 8552 0
8552 8783 8553 0
8784 8782 8551 0
8785 8547 8781 0
8786 8785 8781 0
8253 8547 8785 0
8553 8253 8785 0
8783 8253 8553 0
8553 8554 8265 0
8554 8787 8555 0
8787 8556 8555 0
8784 8559 8269 0
8784 8551 8559 0
8557 8788 8558 0
8269 8558 8789 0
8784 8269 8789 0
8560 8790 8791 0
8560 8791 8561 0
8561 8791 8273 0
8562 8790 8560 0
8792 8790 8562 0
8563 8792 8562 0
8563 8565 8792 0
7697 8565 8563 0
8791 8274 8273 0
8566 8793 8564 0
8566 8794 8793 0
8566 8569 8794 0
8569 8570 8794 0
8795 8571 8572 0
8275 8571 8795 0
8570 8573 8796 0
8573 8797 8798 0
8574 8797 8573 0
8575 8797 8574 0
7483 8799 6591 0
8799 7483 7707 0
8576 8800 8797 0
8576 8797 8575 0
8801 8802 8803 0
8803 8802 8804 0
8801 8805 8802 0
8802 8806 8807 0
8805 8806 8802 0
8576 8282 8800 0
8282 8808 8800 0
8582 8808 8282 0
8580 8577 8809 0
8580 8809 8807 0
8807 8809 8802 0
8807 8806 8810 0
8807 8810 8580 0
8580 8810 8578 0
8581 8808 8582 0
5646 6591 7194 0
8287 8811 8812 0
8585 8811 8287 0
8812 8813 8289 0
8812 8289 8287 0
8289 8813 8814 0
8577 8815 8809 0
8578 8810 8816 0
8584 8578 8816 0
8581 8817 8808 0
8289 8814 8290 0
8290 8818 8819 0
8290 8814 8818 0
8583 8815 8577 0
8583 8586 8815 0
8584 8816 8820 0
8293 8584 8820 0
8295 8293 8821 0
8293 8820 8821 0
8821 8296 8295 0
8286 8822 8581 0
8587 8822 8286 0
7710 6932 8585 0
8290 8819 8588 0
8586 8589 8815 0
8296 8821 8823 0
8587 8824 8822 0
8587 8590 8824 0
8825 8815 8589 0
8825 8589 8013 0
8296 8823 8826 0
8591 8296 8827 0
8296 8826 8827 0
7709 8300 8590 0
8013 8828 8825 0
8828 8013 8015 0
8591 8827 8829 0
8592 8591 8829 0
7716 7715 8830 0
8831 7716 8830 0
8592 8829 8593 0
8832 8028 8306 0
7722 7716 8831 0
7723 7722 8833 0
7722 8831 8833 0
8833 8307 7723 0
8834 8307 8833 0
8598 8594 8835 0
8598 8835 8599 0
8601 8836 8311 0
8602 8837 8601 0
8601 8837 8836 0
8834 8603 8307 0
8838 8603 8834 0
8605 8599 8839 0
8605 8839 8606 0
8840 8306 8039 0
8602 8324 8837 0
8837 8324 8328 0
8837 8328 8841 0
8603 8838 8321 0
8838 8842 8321 0
8607 8843 8604 0
8039 8325 8840 0
8600 8332 7210 0
8842 8608 8321 0
8606 8844 8845 0
8328 8327 8841 0
8841 8327 8846 0
8845 8616 8606 0
8846 8327 8336 0
8620 8846 8336 0
8608 8847 8043 0
8848 8619 8845 0
8845 8619 8616 0
8043 8847 8345 0
8619 8848 8622 0
8623 8849 8350 0
8345 8847 8850 0
8627 8345 8850 0
8627 8850 8851 0
8621 8359 8852 0
8849 8623 8624 0
8625 8626 8620 0
8627 8851 8628 0
8629 8628 8851 0
8629 8853 8630 0
8852 8359 8366 0
8366 8854 8852 0
8064 8622 8855 0
8363 8856 8626 0
8632 8853 8637 0
8632 8630 8853 0
8855 8371 8064 0
8631 8333 8857 0
8633 8631 8857 0
8633 8857 8858 0
8858 8859 8633 0
8363 8634 8856 0
8634 8636 8856 0
8637 8853 8860 0
8853 8861 8860 0
8633 8859 8635 0
8637 8860 8639 0
8861 8639 8860 0
8366 8640 8854 0
8854 8640 8862 0
8862 8640 8863 0
8090 8371 8648 0
8642 8641 7530 0
8636 8864 8865 0
8645 8864 8636 0
8646 8639 8866 0
8866 8639 8867 0
8867 8639 8861 0
8640 8868 8863 0
8647 8868 8640 0
8652 8869 8647 0
8647 8869 8868 0
8648 8371 8870 0
8649 8871 8641 0
8649 8641 8642 0
8644 8643 8872 0
8872 8650 8644 0
8645 8873 8864 0
8651 8873 8645 0
8866 8651 8646 0
8866 8874 8651 0
8874 8873 8651 0
8867 8874 8866 0
8875 8874 8867 0
8861 8875 8867 0
8653 8648 8870 0
8655 8383 8876 0
8383 8384 8876 0
8653 8870 8385 0
8870 8388 8385 0
8877 8654 8878 0
8384 8879 8876 0
8657 8879 8384 0
8657 8100 8879 0
8880 8100 8104 0
8658 8881 8120 0
8120 8881 8882 0
7822 8883 8881 0
7822 8881 8658 0
8878 8881 8883 0
8878 8883 8877 0
8654 8884 8659 0
8654 8877 8884 0
8104 7806 8880 0
8880 7806 8392 0
8120 8882 8393 0
7822 8664 8883 0
8664 8877 8883 0
8884 8877 8665 0
8665 8877 8664 0
8659 8665 8660 0
8884 8665 8659 0
8662 8661 8885 0
8663 8662 8885 0
8663 8885 8886 0
8663 8886 8395 0
8390 7537 8887 0
8398 8888 8392 0
7537 8666 8887 0
8887 8666 8889 0
8667 8888 8398 0
8888 8667 8405 0
8669 8135 8890 0
8135 8891 8890 0
8889 8666 8669 0
8890 8889 8669 0
8405 8892 8888 0
8406 8892 8405 0
8672 8892 8406 0
8142 8413 7837 0
8144 8893 7839 0
8893 8144 8143 0
8894 8893 8143 0
8894 8143 8145 0
8895 8686 8685 0
8675 8686 8895 0
8676 8675 8896 0
8897 8676 8896 0
8897 8898 8676 0
8676 8898 8678 0
8898 8680 8678 0
8899 8680 8898 0
8413 8900 8681 0
8899 8683 8680 0
8899 8417 8683 0
8901 8681 8900 0
8685 8902 8903 0
8902 8904 8903 0
8685 8684 8902 0
8905 8906 7288 0
8906 8907 7288 0
8907 7284 7288 0
8901 8688 8681 0
8908 8429 8428 0
8908 8909 8429 0
8909 7851 8429 0
7851 8909 8905 0
7288 7851 8905 0
8904 8910 8911 0
8684 8910 8902 0
8902 8910 8904 0
8428 8432 8694 0
8428 8694 8908 0
8908 8694 8912 0
8904 8911 8913 0
8417 8914 8439 0
8914 8915 8439 0
8912 8694 8693 0
8910 8913 8911 0
8684 8692 8910 0
8916 8695 8915 0
8915 8695 8439 0
8693 8917 8912 0
8696 8918 8693 0
8693 8918 8917 0
8918 8696 8697 0
8919 8918 8697 0
8920 8913 8910 0
8921 8913 8920 0
8692 8691 8920 0
8910 8692 8920 0
8916 8922 8438 0
8695 8916 8438 0
8923 8922 8916 0
8697 8441 8919 0
8919 8441 8924 0
8920 8925 8921 0
8920 8691 8698 0
8920 8698 8926 0
8920 8926 8925 0
8699 8438 8922 0
8699 8922 8923 0
8699 8923 8452 0
8441 8443 8924 0
8698 8700 8926 0
8700 8701 8926 0
8701 8927 8926 0
8167 8928 8455 0
8701 8702 8927 0
8454 8463 8443 0
8455 8928 8703 0
8927 8702 8929 0
8706 8930 8931 0
8453 8930 8706 0
8443 8463 8932 0
8708 8933 8709 0
8929 8702 8934 0
8711 8187 8706 0
8711 8706 8935 0
8935 8706 8931 0
8936 8935 8931 0
8466 8932 8463 0
8709 8933 8710 0
8934 8702 8461 0
8712 8711 8935 0
8936 8712 8935 0
8465 8712 8936 0
8202 8465 8936 0
8937 8202 8936 0
8466 8202 8937 0
8199 7887 8938 0
8196 8939 7887 0
8939 8196 8710 0
8461 8713 8934 0
8940 8713 8467 0
8467 8714 8940 0
8715 8941 8714 0
8942 8941 8715 0
8942 8715 8943 0
8715 8716 8943 0
8716 8944 8943 0
8717 8944 8716 0
8472 8944 8717 0
8718 8945 8472 0
8472 8945 8944 0
8718 8946 8945 0
8719 8946 8718 0
8720 8947 8719 0
8719 8947 8946 0
8477 8725 8948 0
8720 8721 8947 0
8722 8947 8721 0
8725 8477 8478 0
8725 8949 8948 0
8725 8724 8949 0
8724 8950 8949 0
8950 8724 8727 0
8951 8952 8953 0
8954 8952 8951 0
8954 8951 8955 0
8733 8955 8951 0
8483 8733 8953 0
8953 8733 8951 0
8485 8728 8956 0
8727 8729 8950 0
8732 8731 8957 0
8732 8957 8955 0
8733 8732 8955 0
8956 8958 8485 0
8485 8958 8730 0
8731 8486 8957 0
8957 8486 8959 0
8730 8958 8960 0
8734 8730 8960 0
8734 8960 8961 0
8959 8486 8735 0
8734 8962 8736 0
8734 8961 8962 0
8736 8963 8737 0
8737 8963 8738 0
8963 8739 8738 0
8964 8739 8963 0
8735 8491 8965 0
8739 8964 8226 0
8964 8966 8226 0
8740 8967 8493 0
8967 8740 8741 0
8968 8967 8741 0
8226 8966 8745 0
8729 8218 8969 0
8741 8742 8968 0
8748 8970 8743 0
8970 8971 8743 0
8969 8218 8743 0
8971 8969 8743 0
8972 8968 8742 0
8742 8744 8972 0
8745 8973 7638 0
7638 8973 8974 0
8974 8973 8975 0
8976 8974 8975 0
8747 8746 8748 0
8746 8977 8748 0
7638 8974 8749 0
8978 8977 7639 0
7639 8977 8746 0
8974 8979 8749 0
8976 8979 8974 0
8980 8979 8976 0
8981 8980 8976 0
8750 8752 8980 0
8750 8980 8981 0
8978 8751 8750 0
7639 8751 8978 0
8744 8500 8982 0
8980 8983 8979 0
8752 8753 8983 0
8980 8752 8983 0
8749 8979 8755 0
8983 8755 8979 0
8757 8755 8983 0
8753 8757 8983 0
8984 8760 8985 0
8760 6182 8985 0
8764 8986 8765 0
8986 8764 8766 0
8761 8987 8988 0
8761 8988 8762 0
8762 8988 8989 0
8763 8987 8761 0
8984 8987 8763 0
8760 8984 8763 0
8766 8990 8986 0
8989 8766 8762 0
8990 8766 8989 0
8982 8500 8991 0
8500 8529 8991 0
8524 8992 8530 0
8529 8532 8991 0
8768 8993 8533 0
8533 8993 8770 0
8771 8772 8994 0
8771 8995 8535 0
8535 8995 7652 0
8771 8994 8996 0
8995 8771 8996 0
7652 8995 8776 0
8776 8995 8997 0
8998 8773 8997 0
8773 8776 8997 0
8773 8998 8777 0
8998 8999 8777 0
8999 8778 8777 0
8541 8778 9000 0
9000 8778 8999 0
8252 9001 8543 0
9000 9002 8541 0
9002 8779 8541 0
8252 8780 9001 0
8781 8779 9002 0
9003 8781 9002 0
9004 8780 8782 0
9004 8782 8784 0
8553 8787 8554 0
9005 8787 8553 0
9006 8556 8787 0
8557 8556 9006 0
8557 9006 8788 0
8789 8558 9007 0
9004 8784 8789 0
9007 9004 8789 0
8565 9008 8792 0
8565 9009 9008 0
8564 9009 8565 0
8793 9010 8564 0
8572 9011 9012 0
8795 8572 9012 0
8572 8568 9011 0
8793 8796 9010 0
8794 8796 8793 0
8570 8796 8794 0
8796 8573 9013 0
8573 9014 9013 0
8798 9014 8573 0
8275 9015 7707 0
8795 9015 8275 0
9016 9017 9018 0
9019 9017 9016 0
8798 9020 9014 0
8798 8797 9020 0
8797 9021 9020 0
6591 8799 9022 0
9015 8799 7707 0
9019 9023 9024 0
9019 9016 9023 0
9018 9025 9016 0
9025 9023 9016 0
9026 9018 9017 0
9026 9025 9018 0
9025 9027 9028 0
9026 9027 9025 0
9028 8803 8804 0
9028 9027 8803 0
9027 9029 8803 0
8797 9030 9021 0
8800 9030 8797 0
9024 9023 9031 0
9025 9032 9023 0
9033 9025 9028 0
8804 9033 9028 0
8803 9029 9034 0
8803 9034 8801 0
8805 8801 9034 0
8808 9035 8800 0
8813 8812 9036 0
9036 9037 8813 0
8814 8813 9037 0
9024 8814 9037 0
9024 9031 8814 0
8804 9038 9033 0
8802 8809 9038 0
8802 9038 8804 0
8806 8805 9039 0
9040 8806 9039 0
8810 8806 9040 0
8808 9041 9035 0
8812 9042 9043 0
8811 9042 8812 0
9036 8812 9044 0
9044 8812 9043 0
8818 8814 9031 0
9045 9031 9046 0
8818 9031 9045 0
8809 8815 9038 0
8810 9040 8816 0
8808 8817 9041 0
8581 9047 8817 0
8585 9048 8811 0
8811 9048 9042 0
8818 9045 8819 0
8816 9049 8820 0
8581 9050 9047 0
8822 9050 8581 0
9048 8585 9051 0
8815 8828 9052 0
8821 8820 9053 0
8821 9053 8823 0
8823 9053 9054 0
8822 8824 9050 0
8590 9055 8824 0
8825 8828 8815 0
8823 9054 8826 0
8588 9056 8012 0
8827 8826 9057 0
8827 9057 8829 0
8829 9057 9058 0
8012 9056 9059 0
7715 8012 9059 0
7715 9059 8830 0
8015 8304 8828 0
8829 9058 8593 0
8594 8593 9060 0
8303 8595 9061 0
8028 8832 8595 0
9062 9063 9064 0
9065 9062 9064 0
9064 9063 9066 0
9067 8833 8831 0
8833 9067 8834 0
8594 9060 8835 0
8599 8835 9068 0
8311 9069 8600 0
8836 9070 8311 0
8311 9070 9069 0
9065 9070 8836 0
8837 9065 8836 0
9062 9065 8837 0
8841 9062 8837 0
8841 9071 9062 0
9071 9063 9062 0
9071 9066 9063 0
8834 9067 8838 0
8604 9072 8596 0
8843 9072 8604 0
8599 9068 8839 0
8606 8839 9073 0
8832 8306 8840 0
9074 9066 9071 0
8841 9074 9071 0
8606 9073 8844 0
8608 8842 9075 0
8607 8610 8843 0
8846 9074 8841 0
8611 9076 8610 0
8611 8614 9076 0
9077 8614 8615 0
8608 9078 8847 0
9079 8608 9075 0
9078 8608 9079 0
9077 8615 8621 0
8848 8845 9080 0
8848 9080 9081 0
9078 9082 8847 0
9083 9078 9079 0
9083 9084 9078 0
9084 9082 9078 0
9083 9085 9084 0
8621 8852 9077 0
9077 8852 9086 0
8622 8848 9081 0
8620 8626 9087 0
8847 9082 8850 0
8851 8850 9082 0
9084 8851 9082 0
8629 8851 9084 0
9085 8629 9084 0
8629 9085 8853 0
8626 8856 9087 0
8852 8854 9088 0
8855 9089 8371 0
9090 8068 8082 0
8333 9091 8857 0
8857 9091 8858 0
9091 8859 8858 0
9092 8859 9091 0
9093 8853 9094 0
8854 9095 9088 0
9095 8854 8862 0
9096 8371 9089 0
9090 8082 8641 0
8859 9092 8635 0
9092 9097 8635 0
8636 8865 8856 0
8861 8853 9098 0
9098 8853 9093 0
9099 9095 8863 0
9095 8862 8863 0
9100 9090 8641 0
8643 8635 9097 0
8872 8643 9097 0
8861 9098 9101 0
9093 9101 9098 0
9102 9101 9093 0
9103 9102 9093 0
8863 8868 9099 0
8869 9099 8868 0
9104 9099 8869 0
8869 9105 9104 0
8870 8371 9096 0
8871 9100 8641 0
9106 9100 8871 0
9107 8650 8872 0
8873 9108 8864 0
9109 8874 8875 0
9101 8875 8861 0
9101 9110 8875 0
9110 9109 8875 0
8869 8652 9105 0
9105 8652 9111 0
8652 8655 9111 0
8655 9112 9111 0
8650 9107 8654 0
9107 9113 8654 0
8873 9114 9108 0
8874 9114 8873 0
9115 9114 8874 0
9109 9115 8874 0
8655 8876 9112 0
8876 9116 9112 0
9117 8388 8870 0
9118 8878 9113 0
8878 8654 9113 0
8876 8879 9116 0
8879 8100 9116 0
9116 8100 8880 0
8649 9119 8871 0
9119 8649 9120 0
9120 8649 8656 0
8882 9121 9122 0
8882 9122 8393 0
9123 9121 8882 0
8881 9123 8882 0
9118 9123 8881 0
8878 9118 8881 0
8885 8661 9124 0
8887 8656 8390 0
8880 8392 8888 0
8880 8888 9125 0
9125 8888 9126 0
8885 9124 9127 0
8886 8885 9127 0
8886 9127 8395 0
9128 9126 8888 0
9129 9130 9131 0
8887 8889 9130 0
9129 8887 9130 0
8135 8133 9132 0
9132 9131 8891 0
9132 8891 8135 0
8890 8891 9131 0
9130 8890 9131 0
8889 8890 9130 0
8888 9133 9128 0
8892 9133 8888 0
8137 9134 8142 0
8892 9135 9133 0
8413 9134 9136 0
8413 8142 9134 0
9137 8895 9138 0
9137 9139 8895 0
8672 9135 8892 0
7839 9140 7838 0
9141 8893 8894 0
9142 9138 9143 0
8895 9143 9138 0
8896 8675 8895 0
9139 8896 8895 0
9139 9144 8896 0
8896 9144 8897 0
8897 9144 9145 0
9146 9141 8894 0
8894 8145 9146 0
9147 9143 9148 0
8895 9148 9143 0
8897 9145 8898 0
8898 9145 8899 0
9149 8413 9136 0
8413 9149 8900 0
9147 9148 9150 0
9148 9151 9150 0
8685 8903 9151 0
8685 9151 8895 0
8895 9151 9148 0
8899 9145 8417 0
9152 9146 7284 0
9146 8145 7284 0
8900 9149 8901 0
9151 9153 9150 0
8903 8904 9153 0
9151 8903 9153 0
8906 9154 9155 0
8905 9154 8906 0
9152 7284 8907 0
9152 8907 9155 0
9155 8907 8906 0
9153 9156 9150 0
8909 9157 9158 0
8908 9157 8909 0
8905 8909 9159 0
8909 9158 9159 0
9159 9154 8905 0
9160 9161 9156 0
9156 9153 9160 0
8914 8417 9162 0
9157 8908 8912 0
9163 9161 9160 0
9164 9161 9163 0
8913 9163 9153 0
9153 9163 9160 0
8904 8913 9153 0
9162 9165 8915 0
8914 9162 8915 0
9166 9162 8417 0
9166 9167 9162 0
9167 9165 9162 0
8912 9168 9157 0
9163 9169 9164 0
9169 9163 8913 0
9169 8913 9170 0
8915 9165 8916 0
8923 8916 9165 0
8923 9165 9171 0
9171 9165 9167 0
9172 9167 9166 0
9171 9167 9172 0
8912 8917 9168 0
8918 9168 8917 0
9173 9168 8918 0
9173 8918 8919 0
9173 8919 9174 0
8913 8921 9170 0
9170 8921 9175 0
8923 9172 9176 0
8923 9171 9172 0
9176 9177 8923 0
8919 8924 9174 0
8921 9178 9175 0
8925 9178 8921 0
8926 9179 8925 0
8925 9179 9178 0
8452 8923 9177 0
9180 8924 8443 0
9180 9174 8924 0
8927 9179 8926 0
8452 9181 8453 0
8452 9182 9181 0
9183 9179 8927 0
9184 9180 9185 0
9180 8443 9185 0
9183 8929 9186 0
9183 8927 8929 0
9181 9187 8453 0
8453 9187 8930 0
8931 8930 9188 0
8930 9187 9188 0
8937 9189 9190 0
9184 9190 9189 0
9184 9185 9190 0
9185 9191 9190 0
8443 8932 9191 0
9185 8443 9191 0
8703 8928 9192 0
8707 8703 9192 0
8707 9192 9193 0
9194 8708 9193 0
8708 8707 9193 0
8708 9194 8933 0
9186 8934 9195 0
8929 8934 9186 0
8931 9188 8936 0
8937 8936 9188 0
9190 8466 8937 0
9191 8466 9190 0
8932 8466 9191 0
9194 9196 8933 0
9196 8710 8933 0
8713 9195 8934 0
8713 9186 9195 0
8940 9186 8713 0
9186 8940 9197 0
9196 8939 8710 0
8940 8714 9197 0
8941 9197 8714 0
8941 8942 9198 0
8942 9199 9198 0
8942 8943 9199 0
8943 9200 9199 0
8943 8944 9200 0
9201 9202 9203 0
8944 8945 9204 0
8945 9205 9204 0
9202 9201 8948 0
8948 9201 9206 0
8945 8946 9205 0
8947 9205 8946 0
9206 9205 8947 0
8722 9206 8947 0
8477 9206 8722 0
8948 9206 8477 0
9207 9202 8948 0
8949 9208 8948 0
9208 9207 8948 0
9209 9210 9207 0
9208 9209 9207 0
8949 8950 9208 0
9208 8950 9209 0
9211 9212 9213 0
9213 9212 8954 0
8953 9214 9215 0
8953 8952 9214 0
9216 9217 9211 0
8954 8955 9216 0
8954 9216 9213 0
9213 9216 9211 0
8953 9215 8483 0
8483 9215 8728 0
8728 9215 8956 0
8950 8729 9209 0
9218 9217 9216 0
9219 9217 9218 0
8955 9220 9216 0
9216 9220 9218 0
8955 8957 9220 0
9218 9221 9219 0
9220 9221 9218 0
9222 9221 9220 0
9222 9220 8957 0
8958 9223 9224 0
8958 9224 8960 0
8960 9224 8961 0
9225 8961 9224 0
9226 8957 8959 0
8959 8735 9226 0
8962 8961 9225 0
8736 8962 9227 0
8962 9225 9227 0
9228 9226 8965 0
9226 8735 8965 0
8736 9227 8963 0
