#!ascii version written be Caret
18484 36964
8808 8817 9041 0
8581 9047 8817 0
8585 9048 8811 0
8811 9048 9042 0
8818 9045 8819 0
8816 9049 8820 0
8581 9050 9047 0
8822 9050 8581 0
9048 8585 9051 0
8815 8828 9052 0
8821 8820 9053 0
8821 9053 8823 0
8823 9053 9054 0
8822 8824 9050 0
8590 9055 8824 0
8825 8828 8815 0
8823 9054 8826 0
8588 9056 8012 0
8827 8826 9057 0
8827 9057 8829 0
8829 9057 9058 0
8012 9056 9059 0
7715 8012 9059 0
7715 9059 8830 0
8015 8304 8828 0
8829 9058 8593 0
8594 8593 9060 0
8303 8595 9061 0
8028 8832 8595 0
9062 9063 9064 0
9065 9062 9064 0
9064 9063 9066 0
9067 8833 8831 0
8833 9067 8834 0
8594 9060 8835 0
8599 8835 9068 0
8311 9069 8600 0
8836 9070 8311 0
8311 9070 9069 0
9065 9070 8836 0
8837 9065 8836 0
9062 9065 8837 0
8841 9062 8837 0
8841 9071 9062 0
9071 9063 9062 0
9071 9066 9063 0
8834 9067 8838 0
8604 9072 8596 0
8843 9072 8604 0
8599 9068 8839 0
8606 8839 9073 0
8832 8306 8840 0
9074 9066 9071 0
8841 9074 9071 0
8606 9073 8844 0
8608 8842 9075 0
8607 8610 8843 0
8846 9074 8841 0
8611 9076 8610 0
8611 8614 9076 0
9077 8614 8615 0
8608 9078 8847 0
9079 8608 9075 0
9078 8608 9079 0
9077 8615 8621 0
8848 8845 9080 0
8848 9080 9081 0
9078 9082 8847 0
9083 9078 9079 0
9083 9084 9078 0
9084 9082 9078 0
9083 9085 9084 0
8621 8852 9077 0
9077 8852 9086 0
8622 8848 9081 0
8620 8626 9087 0
8847 9082 8850 0
8851 8850 9082 0
9084 8851 9082 0
8629 8851 9084 0
9085 8629 9084 0
8629 9085 8853 0
8626 8856 9087 0
8852 8854 9088 0
8855 9089 8371 0
9090 8068 8082 0
8333 9091 8857 0
8857 9091 8858 0
9091 8859 8858 0
9092 8859 9091 0
9093 8853 9094 0
8854 9095 9088 0
9095 8854 8862 0
9096 8371 9089 0
9090 8082 8641 0
8859 9092 8635 0
9092 9097 8635 0
8636 8865 8856 0
8861 8853 9098 0
9098 8853 9093 0
9099 9095 8863 0
9095 8862 8863 0
9100 9090 8641 0
8643 8635 9097 0
8872 8643 9097 0
8861 9098 9101 0
9093 9101 9098 0
9102 9101 9093 0
9103 9102 9093 0
8863 8868 9099 0
8869 9099 8868 0
9104 9099 8869 0
8869 9105 9104 0
8870 8371 9096 0
8871 9100 8641 0
9106 9100 8871 0
9107 8650 8872 0
8873 9108 8864 0
9109 8874 8875 0
9101 8875 8861 0
9101 9110 8875 0
9110 9109 8875 0
8869 8652 9105 0
9105 8652 9111 0
8652 8655 9111 0
8655 9112 9111 0
8650 9107 8654 0
9107 9113 8654 0
8873 9114 9108 0
8874 9114 8873 0
9115 9114 8874 0
9109 9115 8874 0
8655 8876 9112 0
8876 9116 9112 0
9117 8388 8870 0
9118 8878 9113 0
8878 8654 9113 0
8876 8879 9116 0
8879 8100 9116 0
9116 8100 8880 0
8649 9119 8871 0
9119 8649 9120 0
9120 8649 8656 0
8882 9121 9122 0
8882 9122 8393 0
9123 9121 8882 0
8881 9123 8882 0
9118 9123 8881 0
8878 9118 8881 0
8885 8661 9124 0
8887 8656 8390 0
8880 8392 8888 0
8880 8888 9125 0
9125 8888 9126 0
8885 9124 9127 0
8886 8885 9127 0
8886 9127 8395 0
9128 9126 8888 0
9129 9130 9131 0
8887 8889 9130 0
9129 8887 9130 0
8135 8133 9132 0
9132 9131 8891 0
9132 8891 8135 0
8890 8891 9131 0
9130 8890 9131 0
8889 8890 9130 0
8888 9133 9128 0
8892 9133 8888 0
8137 9134 8142 0
8892 9135 9133 0
8413 9134 9136 0
8413 8142 9134 0
9137 8895 9138 0
9137 9139 8895 0
8672 9135 8892 0
7839 9140 7838 0
9141 8893 8894 0
9142 9138 9143 0
8895 9143 9138 0
8896 8675 8895 0
9139 8896 8895 0
9139 9144 8896 0
8896 9144 8897 0
8897 9144 9145 0
9146 9141 8894 0
8894 8145 9146 0
9147 9143 9148 0
8895 9148 9143 0
8897 9145 8898 0
8898 9145 8899 0
9149 8413 9136 0
8413 9149 8900 0
9147 9148 9150 0
9148 9151 9150 0
8685 8903 9151 0
8685 9151 8895 0
8895 9151 9148 0
8899 9145 8417 0
9152 9146 7284 0
9146 8145 7284 0
8900 9149 8901 0
9151 9153 9150 0
8903 8904 9153 0
9151 8903 9153 0
8906 9154 9155 0
8905 9154 8906 0
9152 7284 8907 0
9152 8907 9155 0
9155 8907 8906 0
9153 9156 9150 0
8909 9157 9158 0
8908 9157 8909 0
8905 8909 9159 0
8909 9158 9159 0
9159 9154 8905 0
9160 9161 9156 0
9156 9153 9160 0
8914 8417 9162 0
9157 8908 8912 0
9163 9161 9160 0
9164 9161 9163 0
8913 9163 9153 0
9153 9163 9160 0
8904 8913 9153 0
9162 9165 8915 0
8914 9162 8915 0
9166 9162 8417 0
9166 9167 9162 0
9167 9165 9162 0
8912 9168 9157 0
9163 9169 9164 0
9169 9163 8913 0
9169 8913 9170 0
8915 9165 8916 0
8923 8916 9165 0
8923 9165 9171 0
9171 9165 9167 0
9172 9167 9166 0
9171 9167 9172 0
8912 8917 9168 0
8918 9168 8917 0
9173 9168 8918 0
9173 8918 8919 0
9173 8919 9174 0
8913 8921 9170 0
9170 8921 9175 0
8923 9172 9176 0
8923 9171 9172 0
9176 9177 8923 0
8919 8924 9174 0
8921 9178 9175 0
8925 9178 8921 0
8926 9179 8925 0
8925 9179 9178 0
8452 8923 9177 0
9180 8924 8443 0
9180 9174 8924 0
8927 9179 8926 0
8452 9181 8453 0
8452 9182 9181 0
9183 9179 8927 0
9184 9180 9185 0
9180 8443 9185 0
9183 8929 9186 0
9183 8927 8929 0
9181 9187 8453 0
8453 9187 8930 0
8931 8930 9188 0
8930 9187 9188 0
8937 9189 9190 0
9184 9190 9189 0
9184 9185 9190 0
9185 9191 9190 0
8443 8932 9191 0
9185 8443 9191 0
8703 8928 9192 0
8707 8703 9192 0
8707 9192 9193 0
9194 8708 9193 0
8708 8707 9193 0
8708 9194 8933 0
9186 8934 9195 0
8929 8934 9186 0
8931 9188 8936 0
8937 8936 9188 0
9190 8466 8937 0
9191 8466 9190 0
8932 8466 9191 0
9194 9196 8933 0
9196 8710 8933 0
8713 9195 8934 0
8713 9186 9195 0
8940 9186 8713 0
9186 8940 9197 0
9196 8939 8710 0
8940 8714 9197 0
8941 9197 8714 0
8941 8942 9198 0
8942 9199 9198 0
8942 8943 9199 0
8943 9200 9199 0
8943 8944 9200 0
9201 9202 9203 0
8944 8945 9204 0
8945 9205 9204 0
9202 9201 8948 0
8948 9201 9206 0
8945 8946 9205 0
8947 9205 8946 0
9206 9205 8947 0
8722 9206 8947 0
8477 9206 8722 0
8948 9206 8477 0
9207 9202 8948 0
8949 9208 8948 0
9208 9207 8948 0
9209 9210 9207 0
9208 9209 9207 0
8949 8950 9208 0
9208 8950 9209 0
9211 9212 9213 0
9213 9212 8954 0
8953 9214 9215 0
8953 8952 9214 0
9216 9217 9211 0
8954 8955 9216 0
8954 9216 9213 0
9213 9216 9211 0
8953 9215 8483 0
8483 9215 8728 0
8728 9215 8956 0
8950 8729 9209 0
9218 9217 9216 0
9219 9217 9218 0
8955 9220 9216 0
9216 9220 9218 0
8955 8957 9220 0
9218 9221 9219 0
9220 9221 9218 0
9222 9221 9220 0
9222 9220 8957 0
8958 9223 9224 0
8958 9224 8960 0
8960 9224 8961 0
9225 8961 9224 0
9226 8957 8959 0
8959 8735 9226 0
8962 8961 9225 0
8736 8962 9227 0
8962 9225 9227 0
9228 9226 8965 0
9226 8735 8965 0
8736 9227 8963 0
9227 8964 8963 0
9227 9229 8964 0
9229 9230 8964 0
9228 8965 9231 0
9231 8965 8491 0
9232 8966 9230 0
9230 8966 8964 0
8491 9233 9231 0
8493 9233 8491 0
9234 9233 8967 0
8967 9233 8493 0
8967 8968 9234 0
9232 9235 8745 0
8966 9232 8745 0
9236 9237 9232 0
9237 9235 9232 0
9238 9237 9236 0
9239 9240 9238 0
9241 9242 8969 0
8969 9242 8729 0
8745 9235 8973 0
8975 8973 9235 0
9237 8975 9235 0
8976 8975 9237 0
8976 9237 9243 0
9243 9237 9238 0
9244 9243 9238 0
9240 9244 9238 0
9245 9246 9240 0
8970 8748 9246 0
8970 9246 9245 0
8971 8970 9245 0
9241 8971 9245 0
8969 8971 9241 0
9234 8968 8972 0
9244 8976 9243 0
8981 8976 9244 0
8750 8981 9244 0
8750 9244 9247 0
9247 9244 9240 0
9246 8978 9240 0
8978 9247 9240 0
8748 8977 8978 0
9246 8748 8978 0
8978 8750 9247 0
8982 9234 8972 0
9248 9234 8982 0
8972 8744 8982 0
8982 9249 9248 0
9249 8982 9250 0
6182 9251 8985 0
9250 8982 9252 0
8988 8987 9253 0
9254 8989 9253 0
8989 8988 9253 0
8986 8990 9254 0
8989 9254 8990 0
9252 8982 8991 0
8526 9255 8524 0
8993 8768 8767 0
8538 9256 8244 0
8770 8993 8772 0
8538 8774 9256 0
9256 8774 9257 0
8772 8993 8994 0
8993 9258 8994 0
8775 8539 9259 0
9257 8774 8775 0
9259 9257 8775 0
8994 9258 9260 0
8996 8994 9260 0
9261 8995 9260 0
8995 8996 9260 0
8995 9262 8997 0
9261 9262 8995 0
8997 9262 8998 0
9261 9263 9262 0
8998 9262 9263 0
8998 9263 9264 0
9264 8999 8998 0
9264 9263 9265 0
8999 9266 9000 0
9267 8543 9268 0
9266 9002 9000 0
9269 9002 9266 0
8543 9001 9268 0
9001 8780 9268 0
9268 8780 9004 0
9002 9270 9003 0
9270 8781 9003 0
8781 9270 8786 0
9271 9004 9272 0
9273 8558 8788 0
8558 9273 9007 0
9272 9004 9007 0
8785 8786 9274 0
8787 9275 9006 0
8788 9006 9275 0
9276 8788 9275 0
9273 8788 9276 0
8785 9274 9277 0
8553 8785 9277 0
9005 8553 9277 0
9278 8787 9005 0
9275 8787 9278 0
8790 9279 9280 0
8791 8790 9280 0
8790 8792 9279 0
8568 8567 9281 0
8567 8274 9281 0
9280 8274 8791 0
8564 9010 9009 0
8568 9282 9011 0
9282 8568 9281 0
9010 8796 9283 0
8796 9284 9285 0
9013 9284 8796 0
9014 9286 9013 0
9013 9286 9284 0
9014 9287 9286 0
9020 9287 9014 0
9021 9287 9020 0
8799 9288 9022 0
9015 9289 8799 0
9289 9288 8799 0
8795 9289 9015 0
9019 9024 9290 0
9290 9024 9291 0
9017 9019 9290 0
9292 9017 9290 0
9017 9292 9026 0
9026 9292 9293 0
9027 9026 9294 0
9026 9293 9294 0
9029 9027 9294 0
9021 9030 9287 0
9022 9295 6591 0
9024 9296 9291 0
9023 9297 9031 0
9297 9023 9032 0
9032 9025 9033 0
9030 9298 9299 0
8800 9298 9030 0
9035 9298 8800 0
9036 9296 9037 0
9296 9024 9037 0
9297 9300 9046 0
9031 9297 9046 0
9300 9297 9032 0
8805 9034 9301 0
8805 9301 9039 0
9039 9301 9040 0
9035 9302 9298 0
9035 9041 9302 0
9041 9303 9302 0
9044 9304 9036 0
9036 9304 9296 0
9300 9305 9046 0
9046 9305 9045 0
9040 9306 8816 0
8816 9306 9307 0
9049 8816 9307 0
9041 9308 9303 0
8817 9308 9041 0
9047 9308 8817 0
9043 9309 9310 0
9043 9042 9309 0
9042 9048 9309 0
9044 9043 9310 0
9311 9044 9310 0
9304 9044 9311 0
9045 9305 8819 0
9305 9312 8819 0
8815 9313 9038 0
8815 9314 9313 0
9052 9314 8815 0
9049 9307 9315 0
9049 9315 8820 0
8820 9315 9316 0
9047 9317 9308 0
9047 9050 9317 0
9050 9318 9317 0
6296 7194 6932 0
9051 8585 9319 0
9309 9048 9051 0
9319 9309 9051 0
8819 9312 8588 0
8828 9314 9052 0
8820 9316 9320 0
9053 8820 9320 0
9054 9053 9320 0
9050 9321 9318 0
8824 9321 9050 0
8824 9055 9321 0
8828 9322 9314 0
8826 9054 9320 0
8590 8300 9055 0
7487 9323 8300 0
9323 7487 8303 0
9312 9056 8588 0
9312 9324 9056 0
8826 9320 9057 0
9058 9057 9325 0
8303 9326 9323 0
9326 8303 9061 0
9056 9324 8830 0
9056 8830 9059 0
9322 8828 8304 0
9058 9325 9327 0
9058 9327 8593 0
8593 9327 9328 0
9060 8593 9328 0
9329 9067 8831 0
8304 8308 9322 0
9330 8597 8596 0
9060 9328 9331 0
9060 9331 8835 0
8835 9331 9332 0
9333 9068 9332 0
9068 8835 9332 0
8832 9334 8595 0
9067 9329 8838 0
9068 9333 8839 0
8839 9333 9335 0
9336 9073 9335 0
9073 8839 9335 0
8832 8840 9334 0
9066 9074 9337 0
8838 9338 8842 0
9073 9336 8844 0
9339 9334 8840 0
9339 8840 8325 0
9337 9074 9340 0
8842 9338 9075 0
8610 9341 8843 0
9080 8845 8844 0
8617 9339 8325 0
9342 9340 9074 0
8846 9342 9074 0
9338 9343 9075 0
8610 9076 9341 0
8614 9344 9076 0
9344 8614 9077 0
8620 9345 9342 0
8620 9342 8846 0
9083 9079 9343 0
9343 9079 9075 0
9077 9346 9344 0
9346 9077 9086 0
8620 9087 9345 0
9083 9347 9348 0
9083 9348 9085 0
9085 9348 9349 0
8622 9080 9350 0
8622 9081 9080 0
9085 9349 8853 0
9094 8853 9349 0
9351 9094 9349 0
9352 9087 8856 0
9353 9351 9354 0
9350 9355 8855 0
9350 8855 8622 0
9350 9356 9355 0
9091 8333 9357 0
9357 9358 9091 0
9355 9359 9089 0
8855 9355 9089 0
9356 9360 9355 0
9360 9359 9355 0
9091 9358 9092 0
9358 9361 9092 0
9093 9094 9351 0
9093 9351 9362 0
9362 9351 9353 0
9363 9364 9353 0
9364 9362 9353 0
9364 9363 9365 0
9096 9089 9359 0
9096 9359 9366 0
9366 9359 9360 0
9367 9360 9356 0
9366 9360 9367 0
9092 9368 9097 0
9368 9092 9361 0
9369 9362 9364 0
9369 9103 9362 0
9093 9362 9103 0
9365 9369 9364 0
9095 9099 9370 0
9096 9366 9367 0
9367 9371 9096 0
9372 9090 9100 0
9368 8872 9097 0
9102 9373 9101 0
9101 9373 9374 0
9369 9102 9103 0
9373 9102 9369 0
9375 9372 9100 0
9376 8872 9368 0
8872 9376 9107 0
9109 9377 9378 0
9101 9377 9110 0
9377 9109 9110 0
9379 9111 9112 0
9117 8870 9096 0
9375 9100 9106 0
9376 9113 9107 0
9378 9115 9109 0
9116 9379 9112 0
9380 8388 9117 0
9121 9381 9382 0
9122 9121 9382 0
9383 9381 9123 0
9381 9121 9123 0
9383 9123 9384 0
9123 9118 9384 0
9113 9384 9118 0
9116 9385 9379 0
9385 9116 8880 0
8388 9380 8389 0
8871 9119 9386 0
9119 9387 9386 0
9387 9119 9120 0
9388 9387 9120 0
9122 9382 8393 0
8389 9124 8661 0
9120 8656 9388 0
9385 8880 9125 0
9389 9385 9125 0
9390 9389 9126 0
9389 9125 9126 0
8395 9127 9391 0
9392 8656 8887 0
8887 9129 9392 0
9390 9126 9128 0
8395 9391 8668 0
8668 8400 8395 0
9392 9131 9132 0
9129 9131 9392 0
8393 9393 8402 0
8133 8668 9132 0
9128 9133 9394 0
9395 9396 9397 0
9397 9396 9142 0
9396 9398 9142 0
9138 9142 9137 0
9133 9135 9399 0
9135 9400 9399 0
9139 9137 9401 0
8673 9402 8672 0
8672 9402 9135 0
8673 7838 9402 0
9403 9140 8893 0
8893 9140 7839 0
8893 9141 9403 0
9404 9405 9406 0
9395 9407 9405 0
9143 9407 9397 0
9397 9407 9395 0
9142 9143 9397 0
9139 9401 9408 0
9144 9139 9408 0
9144 9408 9145 0
9403 9141 9409 0
9409 9141 9146 0
9407 9147 9405 0
9407 9143 9147 0
9405 9147 9406 0
9410 8417 9145 0
9146 9152 9409 0
9409 9152 9411 0
9150 9412 9147 0
9147 9412 9406 0
9413 8417 9410 0
9154 9414 9155 0
9411 9152 9155 0
9414 9411 9155 0
9415 9416 9417 0
9412 9415 9417 0
9412 9418 9415 0
9150 9156 9418 0
9412 9150 9418 0
9158 9157 9419 0
9158 9420 9159 0
9419 9420 9158 0
9159 9420 9421 0
9159 9421 9154 0
9154 9421 9414 0
8690 9422 8167 0
9423 9416 9415 0
9424 9416 9423 0
9156 9161 9423 0
9156 9423 9418 0
9418 9423 9415 0
9168 9419 9157 0
9168 9425 9419 0
9425 9420 9419 0
9426 9421 9420 0
9425 9426 9420 0
9423 9427 9424 0
9427 9423 9161 0
9427 9161 9164 0
9166 8417 9413 0
9425 9428 9426 0
9425 9168 9428 0
9168 9173 9428 0
9428 9173 9174 0
9164 9429 9427 0
9169 9429 9164 0
9170 9430 9431 0
9170 9431 9169 0
9169 9431 9429 0
9432 9433 9434 0
9433 9435 9434 0
9176 9172 9413 0
9413 9172 9166 0
9430 9175 9436 0
9170 9175 9430 0
9437 9431 9430 0
9437 9430 9436 0
9435 9433 9438 0
9438 9434 9435 0
9176 9439 9177 0
9175 9178 9436 0
9179 9436 9178 0
9437 9436 9179 0
9440 8452 9439 0
9439 8452 9177 0
9174 9180 9441 0
9179 9197 9437 0
9197 9442 9437 0
9433 9442 9197 0
9182 8452 9440 0
9182 9440 9443 0
9444 9443 9445 0
9182 9443 9444 0
9446 9447 9438 0
9448 9446 9438 0
9181 9444 9449 0
9181 9182 9444 0
9181 9450 9451 0
9449 9450 9181 0
9441 9180 9452 0
9183 9197 9179 0
9187 9181 9453 0
9453 9181 9451 0
9454 9453 9451 0
9180 9184 9452 0
9446 9448 9455 0
9188 9187 9453 0
9454 9188 9453 0
8937 9188 9454 0
9189 8937 9456 0
8937 9457 9456 0
9452 9184 9189 0
9456 9452 9189 0
9192 9194 9193 0
9183 9186 9197 0
9438 9433 9197 0
9448 9438 9197 0
9455 9448 9458 0
9458 9448 9197 0
9458 9197 9459 0
9196 8938 8939 0
8938 7887 8939 0
9459 9197 8941 0
8941 9460 9459 0
9460 9458 9459 0
9461 9458 9460 0
8941 9198 9460 0
9199 9460 9198 0
9461 9460 9199 0
9200 9461 9199 0
9200 9458 9461 0
9462 9458 9200 0
9463 9462 9464 0
9464 9462 9200 0
9201 9463 9464 0
9203 9463 9201 0
9202 9465 9203 0
8944 9204 9200 0
9205 9200 9204 0
9206 9200 9205 0
9464 9200 9206 0
9201 9464 9206 0
9202 9207 9465 0
9465 9207 9210 0
9465 9210 9466 0
9210 9209 9466 0
9211 9467 9468 0
9211 9217 9467 0
9217 9469 9467 0
9212 9211 9468 0
9470 9212 9468 0
9470 9471 9212 0
9212 9471 8954 0
8954 9471 9472 0
8954 9472 8952 0
8956 9215 9473 0
9215 9474 9473 0
9217 9219 9469 0
9469 9219 9475 0
8956 9473 9476 0
8958 8956 9476 0
9223 8958 9477 0
8958 9476 9477 0
9209 8729 9478 0
9219 9479 9475 0
9221 9479 9219 0
9222 9479 9221 0
9223 9477 9480 0
9224 9223 9480 0
9225 9224 9481 0
9224 9480 9481 0
9222 9482 9479 0
9482 9222 8957 0
9482 8957 9226 0
9225 9483 9227 0
9229 9484 9485 0
9229 9227 9484 0
9227 9483 9484 0
9484 9486 9485 0
9478 8729 9487 0
9226 9228 9482 0
9482 9228 9488 0
9485 9489 9230 0
9229 9485 9230 0
9486 9489 9485 0
9490 9487 8729 0
9488 9228 9231 0
9230 9489 9232 0
9236 9232 9489 0
9486 9236 9489 0
9238 9236 9486 0
9238 9486 9491 0
9491 9486 9492 0
9239 9491 9492 0
9490 9241 9493 0
8729 9242 9241 0
9490 8729 9241 0
9233 9488 9231 0
9488 9233 9234 0
9494 9488 9234 0
9239 9238 9491 0
9245 9240 9239 0
9493 9245 9239 0
9241 9245 9493 0
9494 9234 9249 0
9234 9248 9249 0
6182 7383 9251 0
9249 9250 9495 0
9250 9252 9496 0
9495 9250 9496 0
8987 9497 9498 0
9253 8987 9498 0
8984 9499 8987 0
8987 9499 9497 0
9251 8984 8985 0
9499 8984 9251 0
9500 9496 9252 0
9500 9252 9501 0
9502 9503 9504 0
9503 9505 9504 0
9504 9505 9506 0
9506 9505 9507 0
8986 9508 8765 0
8986 9254 9508 0
9498 9254 9253 0
9252 8991 9501 0
9509 9507 9505 0
8765 9510 8526 0
9511 9512 9503 0
9505 9503 9512 0
9509 9505 9512 0
8526 9510 9255 0
8991 8532 9501 0
9513 9507 9509 0
8530 8992 9514 0
8530 9514 8767 0
9256 8532 8244 0
9259 9515 9256 0
9259 9256 9257 0
8543 9516 8539 0
9515 9259 9516 0
9516 9259 8539 0
9517 9260 9258 0
9517 9258 9518 0
9260 9517 9261 0
9519 9520 9521 0
9522 9517 9518 0
9523 9522 9518 0
9261 9517 9524 0
9517 9522 9524 0
9261 9524 9263 0
9525 8999 9264 0
9526 8999 9525 0
9519 9527 9520 0
9528 9524 9522 0
9263 9524 9528 0
9263 9528 9265 0
9265 9528 9529 0
9525 9264 9265 0
9529 9525 9265 0
8999 9526 9266 0
9526 9530 9266 0
9531 9267 9268 0
9520 9527 9532 0
9533 9534 9521 0
9535 9266 9530 0
9521 9520 9536 0
9535 9269 9266 0
9535 9537 9269 0
9537 9002 9269 0
9531 9268 9004 0
9520 9532 9536 0
9521 9536 9538 0
9539 9533 9521 0
9538 9539 9521 0
9540 9002 9537 0
9532 9541 9542 0
9543 9538 9536 0
9539 9538 9543 0
9540 9270 9002 0
9544 9271 9272 0
9536 9532 9542 0
8786 9545 9274 0
9275 9546 9547 0
9276 9275 9547 0
9276 9547 9548 0
9548 9273 9276 0
9274 9545 9549 0
9277 9274 9549 0
9277 9549 9550 0
9277 9550 9005 0
9278 9005 9551 0
9546 9275 9278 0
9551 9546 9278 0
8792 9552 9279 0
9008 9553 9552 0
9008 9552 8792 0
9280 9281 8274 0
9008 9009 9553 0
9009 9554 9553 0
9009 9555 9554 0
9283 9555 9010 0
9010 9555 9009 0
9556 9012 9011 0
9281 9557 9282 0
9557 9011 9282 0
9280 9557 9281 0
9012 9556 8795 0
9285 9284 9558 0
9284 9286 9558 0
9287 9559 9286 0
9288 9560 9022 0
9288 9289 9561 0
9560 9288 9561 0
9289 9562 9561 0
9289 8795 9562 0
9563 9290 9291 0
9292 9290 9564 0
9290 9563 9564 0
9293 9292 9564 0
9287 9565 9559 0
9287 9030 9565 0
9030 9566 9565 0
9299 9566 9030 0
9560 9567 9295 0
9022 9560 9295 0
9568 9567 9561 0
9567 9560 9561 0
9562 9568 9561 0
9291 9296 9569 0
9563 9291 9569 0
9294 9293 9570 0
9571 9294 9570 0
9029 9571 9301 0
9029 9294 9571 0
9029 9301 9034 0
9299 9572 9566 0
9299 9298 9572 0
9298 9573 9572 0
9567 9574 9575 0
9567 9575 9295 0
9295 9575 6591 0
9568 9574 9567 0
9040 9301 9576 0
9298 9577 9573 0
9302 9577 9298 0
9303 9577 9302 0
6591 9575 7194 0
9296 9304 9569 0
9300 9578 9305 0
9300 9032 9578 0
9033 9578 9032 0
9579 9578 9033 0
9580 9579 9033 0
9038 9581 9033 0
9040 9576 9306 0
9307 9306 9582 0
9303 9583 9577 0
9303 9308 9583 0
9308 9584 9583 0
9309 9585 9310 0
9585 9311 9310 0
9569 9304 9311 0
9585 9569 9311 0
9305 9586 9312 0
9038 9587 9581 0
9313 9587 9038 0
9314 9588 9313 0
9313 9588 9587 0
9307 9582 9589 0
9315 9307 9589 0
9316 9315 9589 0
9308 9590 9584 0
9317 9590 9308 0
9318 9590 9317 0
8585 6932 9319 0
9316 9589 9591 0
9316 9591 9320 0
9320 9591 9592 0
9318 9593 9590 0
9318 9321 9593 0
9321 9594 9593 0
9055 9594 9321 0
9312 9586 9595 0
9322 9588 9314 0
9320 9592 9325 0
9055 9596 9594 0
9055 8300 9596 0
8300 9597 9596 0
9323 9597 8300 0
9312 9595 9324 0
9595 9598 9324 0
9322 9599 9588 0
9057 9320 9325 0
9323 9600 9597 0
9323 9326 9600 0
8830 9324 9598 0
9601 8830 9598 0
9602 9599 9322 0
8595 9603 9061 0
8831 8830 9601 0
9601 9329 8831 0
9322 8308 9602 0
8597 9330 8308 0
9328 9604 9331 0
8595 9605 9603 0
8595 9334 9605 0
9334 9606 9605 0
9607 8600 9069 0
9607 9069 9608 0
9608 9069 9070 0
9608 9070 9065 0
9066 9337 9609 0
9329 9610 8838 0
8596 9611 9330 0
8843 9612 9611 0
8843 9611 9072 0
9072 9611 8596 0
9333 9613 9335 0
9334 9614 9606 0
8332 8600 9607 0
9609 9337 9615 0
9610 9338 8838 0
9610 9616 9338 0
8844 9336 9617 0
9336 9618 9617 0
9617 9080 8844 0
9339 9614 9334 0
9619 8332 9607 0
9615 9337 9340 0
9620 9615 9340 0
9621 9622 9612 0
8843 9621 9612 0
8843 9341 9623 0
9621 8843 9623 0
9624 9614 9339 0
9620 9340 9342 0
9625 9338 9616 0
9343 9338 9625 0
9622 9621 9626 0
9621 9623 9626 0
9341 9076 9627 0
9341 9627 9623 0
9623 9627 9626 0
9076 9344 9628 0
9627 9076 9628 0
9339 9629 9624 0
8617 9629 9339 0
9630 8617 8051 0
9342 9345 9620 0
9083 9625 9347 0
9083 9343 9625 0
9626 9631 9622 0
9627 9631 9626 0
9628 9631 9627 0
9344 9346 9628 0
9632 9346 9086 0
8051 8350 9630 0
9630 8350 8849 0
9345 9087 9633 0
9349 9348 9347 0
9634 9349 9347 0
9351 9349 9634 0
9354 9351 9634 0
9635 9634 9636 0
9086 8852 9632 0
9080 9617 9637 0
9350 9080 9637 0
9354 9634 9638 0
9638 9634 9635 0
9639 9638 9635 0
9640 9639 9635 0
9632 8852 9641 0
8333 8332 9357 0
9354 9638 9353 0
9639 9353 9638 0
9363 9353 9639 0
9363 9639 9642 0
9642 9639 9640 0
9643 9642 9640 0
9640 9644 9643 0
9641 8852 9088 0
9637 9356 9350 0
9645 9358 9357 0
9646 9358 9645 0
9088 9095 9641 0
9641 9095 9647 0
9648 9649 8068 0
9650 9358 9646 0
9358 9650 9361 0
8856 8865 9651 0
9363 9642 9365 0
9643 9652 9642 0
9652 9365 9642 0
9653 9643 9644 0
9652 9643 9653 0
9095 9370 9647 0
9648 8068 9090 0
9654 9648 9090 0
9361 9655 9368 0
9650 9655 9361 0
9365 9656 9369 0
9656 9657 9369 0
9652 9656 9365 0
9658 9656 9652 0
9653 9658 9652 0
9659 8865 8864 0
9660 9661 9662 0
9663 9660 9662 0
9374 9660 9101 0
9374 9664 9660 0
9664 9661 9660 0
9657 9664 9374 0
9373 9657 9374 0
9369 9657 9373 0
9372 9665 9090 0
9666 9667 9383 0
9655 9666 9383 0
9368 9655 9376 0
8864 9108 9659 0
9659 9108 9668 0
9377 9660 9663 0
9377 9663 9378 0
9378 9663 9669 0
9101 9660 9377 0
9105 9111 9670 0
9670 9111 9379 0
9670 9379 9671 0
9671 9379 9672 0
9673 9667 9674 0
9675 9673 9674 0
9383 9667 9673 0
9676 9655 9383 0
9376 9676 9113 0
9655 9676 9376 0
9108 9677 9668 0
9114 9677 9108 0
9115 9678 9114 0
9114 9678 9677 0
9669 9115 9378 0
9678 9115 9669 0
9385 9672 9379 0
9679 9375 9106 0
9679 9106 8871 0
9381 9673 9675 0
9381 9675 9382 0
9383 9673 9381 0
9383 9384 9676 0
9113 9676 9384 0
9380 9680 8389 0
9681 8871 9386 0
9681 9682 8871 0
9682 9679 8871 0
9386 9387 9683 0
9681 9386 9683 0
9387 9388 9683 0
9680 9124 8389 0
9680 9684 9124 0
9388 8656 9683 0
9390 9385 9389 0
9124 9684 9127 0
9127 9684 9391 0
9391 9684 9685 0
9686 9682 9681 0
9687 9682 9686 0
9683 9392 9681 0
9392 9686 9681 0
9683 8656 9392 0
9390 9128 9688 0
8668 9685 9689 0
8668 9391 9685 0
9687 9686 9689 0
9686 9690 9689 0
9132 9690 9392 0
9392 9690 9686 0
9394 9688 9128 0
9132 8668 9689 0
9690 9132 9689 0
9691 9692 9693 0
9694 9691 9693 0
9695 9696 9398 0
9399 9697 9133 0
9133 9697 9394 0
9697 9399 9400 0
9694 9698 9691 0
9396 9395 9699 0
9695 9396 9699 0
9398 9396 9695 0
9400 9700 9697 0
9694 9701 9698 0
9701 9404 9698 0
9395 9701 9699 0
9699 9701 9694 0
9137 9702 9401 0
9401 9702 9703 0
9704 9140 9403 0
9705 9704 9403 0
9404 9406 9706 0
9404 9706 9698 0
9701 9405 9404 0
9395 9405 9701 0
9401 9703 9707 0
9401 9707 9408 0
9408 9707 9145 0
9707 9410 9145 0
9708 9705 9403 0
9403 9409 9708 0
9410 9707 9709 0
9410 9709 9710 0
9711 9708 9411 0
9708 9409 9411 0
9712 9713 9714 0
9715 9713 9712 0
9706 9716 9714 0
9716 9712 9714 0
9406 9412 9716 0
9706 9406 9716 0
9410 9710 9413 0
9414 9711 9411 0
9414 9717 9711 0
8689 9718 9422 0
8690 8689 9422 0
8687 9718 8689 0
8687 9719 9718 0
8688 9719 8687 0
9719 8688 8901 0
9417 9416 9720 0
9417 9720 9712 0
9417 9712 9716 0
9712 9720 9715 0
9412 9417 9716 0
9414 9421 9717 0
9416 9424 9720 0
9720 9424 9721 0
9421 9426 9717 0
9427 9721 9424 0
9426 9722 9717 0
9428 9722 9426 0
9722 9428 9174 0
9422 9723 8167 0
9427 9429 9721 0
9724 9433 9432 0
9434 9724 9432 0
9434 9725 9724 0
9176 9726 9727 0
9176 9413 9726 0
9724 9431 9437 0
9442 9724 9437 0
9433 9724 9442 0
9434 9438 9725 0
9438 9728 9725 0
9727 9729 9439 0
9176 9727 9439 0
9730 9729 9727 0
9438 9447 9731 0
9438 9731 9728 0
9439 9729 9440 0
9443 9440 9729 0
9730 9443 9729 0
9730 9445 9443 0
9174 9441 9722 0
9732 9447 9733 0
9449 9734 9450 0
9451 9450 9735 0
9450 9734 9735 0
9441 9452 9736 0
9733 9447 9446 0
9451 9735 9454 0
8937 9454 9735 0
9737 8937 9735 0
8937 9737 9738 0
9739 9736 9452 0
9455 9740 9446 0
9740 9733 9446 0
9741 9733 9740 0
8937 9738 9457 0
9739 9457 9738 0
9456 9457 9739 0
9452 9456 9739 0
9740 9458 9742 0
9455 9458 9740 0
9741 9740 9743 0
9743 9740 9742 0
9192 8928 9744 0
9745 9194 9192 0
9746 9742 9458 0
9746 9743 9742 0
9747 9743 9746 0
9745 9748 9749 0
8938 9194 9749 0
9194 9745 9749 0
9196 9194 8938 0
9747 9750 9751 0
8199 9749 9748 0
8938 9749 8199 0
9750 9747 9203 0
9203 9747 9746 0
9752 9753 9750 0
9752 9750 9203 0
9458 9462 9746 0
9463 9746 9462 0
9203 9746 9463 0
9203 9465 9754 0
9755 9468 9467 0
9470 9468 9756 0
9469 9757 9467 0
9758 9757 9469 0
9470 9756 9471 0
9472 9471 9756 0
9759 9472 9756 0
9214 8952 9760 0
8952 9472 9760 0
9760 9215 9214 0
9469 9761 9758 0
9215 9760 9474 0
9477 9476 9762 0
9479 9763 9475 0
9763 9469 9475 0
9477 9762 9480 0
9481 9480 9762 0
9764 9481 9762 0
9481 9765 9225 0
9481 9764 9765 0
9766 9767 9768 0
9769 9770 9478 0
9482 9771 9763 0
9482 9763 9479 0
9225 9765 9483 0
9484 9483 9765 0
9768 9484 9765 0
9486 9484 9768 0
9486 9768 9772 0
9767 9773 9768 0
9773 9772 9768 0
9774 9773 9767 0
9769 9775 9776 0
9478 9487 9775 0
9769 9478 9775 0
9777 9771 9488 0
9771 9482 9488 0
9492 9486 9772 0
9773 9492 9772 0
9239 9492 9773 0
9239 9773 9778 0
9778 9773 9774 0
9776 9779 9774 0
9779 9778 9774 0
9487 9490 9779 0
9487 9779 9775 0
9775 9779 9776 0
9780 9781 9777 0
9488 9780 9777 0
9779 9239 9778 0
9493 9239 9779 0
9490 9493 9779 0
9488 9782 9780 0
9488 9494 9782 0
9783 9781 9780 0
9784 9783 9780 0
9782 9784 9780 0
9494 9249 9782 0
9783 9785 9786 0
9783 9784 9785 0
9784 9782 9785 0
9782 9249 9785 0
9495 9786 9785 0
9787 9786 9495 0
9785 9249 9495 0
9495 9788 9787 0
9788 9495 9789 0
9495 9496 9789 0
9789 9496 9500 0
9790 9791 9502 0
9792 9790 9502 0
9792 9793 9790 0
9502 9794 9503 0
9502 9791 9794 0
9792 9502 9504 0
9792 9504 9795 0
9504 9506 9795 0
9795 9506 9507 0
9796 9795 9507 0
9254 9498 9508 0
9797 9791 9798 0
9799 9791 9797 0
9794 9791 9511 0
9511 9791 9799 0
9794 9511 9503 0
9796 9507 9800 0
9511 9801 9512 0
9507 9513 9800 0
9512 9801 9802 0
9801 9803 9802 0
9802 9804 9512 0
9512 9804 9509 0
9804 9805 9509 0
9509 9805 9800 0
9509 9800 9513 0
9803 9806 9802 0
9804 9802 9806 0
9807 9800 9805 0
9808 9807 9805 0
9500 9501 9809 0
9805 9804 9810 0
9810 9808 9805 0
8767 9514 9811 0
8767 9811 9812 0
9809 9501 8532 0
9813 9814 9806 0
9804 9806 9814 0
9810 9804 9815 0
9815 9816 9810 0
9814 9817 9818 0
9815 9804 9819 0
9820 9818 9817 0
9821 9820 9817 0
9814 9818 9822 0
9822 9818 9820 0
9804 9814 9822 0
9823 9815 9819 0
9824 9515 9516 0
9825 9824 9516 0
9821 9519 9820 0
9822 9820 9519 0
9258 8993 9518 0
8543 9825 9516 0
9822 9519 9521 0
9521 9826 9822 0
9826 9804 9822 0
9819 9804 9826 0
9827 9823 9819 0
9525 9828 9526 0
9829 9830 9831 0
9519 9829 9831 0
9519 9831 9527 0
9521 9534 9826 0
9832 9819 9534 0
9534 9819 9826 0
9827 9819 9832 0
9528 9833 9529 0
9529 9828 9525 0
9529 9833 9828 0
9833 9834 9828 0
9526 9834 9530 0
9828 9834 9526 0
9527 9835 9532 0
9831 9835 9527 0
9836 9832 9534 0
9533 9836 9534 0
9834 9837 9530 0
9837 9535 9530 0
9831 9838 9839 0
9541 9835 9839 0
9835 9831 9839 0
9532 9835 9541 0
9836 9533 9840 0
9837 9537 9535 0
9841 9537 9837 0
9838 9842 9843 0
9533 9539 9840 0
9537 9841 9540 0
9004 9271 9844 0
9541 9839 9542 0
9845 9539 9543 0
9844 9271 9544 0
9839 9838 9846 0
9839 9846 9542 0
9536 9847 9543 0
9543 9847 9845 0
9273 9848 9849 0
9548 9848 9273 0
9273 9849 9850 0
9273 9850 9851 0
9007 9273 9851 0
9272 9007 9544 0
9007 9851 9544 0
9852 9843 9842 0
9853 9852 9842 0
9838 9843 9852 0
9846 9838 9852 0
9542 9846 9854 0
9846 9852 9854 0
9542 9855 9536 0
9854 9855 9542 0
9536 9855 9847 0
8786 9270 9545 0
9547 9856 9548 0
9847 9855 9857 0
9858 9549 9545 0
9858 9545 9859 0
9859 9545 9270 0
9858 9550 9549 0
9005 9550 9860 0
9551 9005 9861 0
9005 9860 9861 0
9546 9551 9861 0
9547 9546 9861 0
9862 9547 9861 0
9863 9852 9853 0
9854 9852 9864 0
9857 9855 9864 0
9864 9855 9854 0
9550 9858 9865 0
9852 9863 9866 0
9867 9852 9866 0
9864 9852 9867 0
9279 9868 9280 0
9279 9552 9553 0
9868 9279 9553 0
9280 9869 9870 0
9868 9869 9280 0
9554 9871 9553 0
9554 9555 9283 0
9556 9011 9870 0
9870 9011 9557 0
9870 9557 9280 0
9554 9872 9871 0
9283 9872 9554 0
8796 9873 9283 0
9285 9873 8796 0
9285 9558 9873 0
8795 9556 9562 0
9556 9874 9562 0
9559 9875 9876 0
9565 9875 9559 0
9566 9877 9565 0
9565 9877 9875 0
9874 9568 9562 0
9878 9568 9874 0
9879 9564 9563 0
9293 9564 9879 0
9293 9879 9570 0
9570 9879 9880 0
9571 9570 9880 0
9566 9881 9877 0
9572 9881 9566 0
9573 9882 9881 0
9573 9881 9572 0
9568 9878 9574 0
9573 9577 9882 0
9582 9306 9883 0
9577 9884 9885 0
9583 9884 9577 0
9584 9886 9884 0
9584 9884 9583 0
9575 9574 7194 0
7194 9574 9887 0
9585 9309 9888 0
9569 9585 9888 0
9305 9578 9586 0
9586 9578 9579 0
9581 9580 9033 0
9587 9889 9581 0
9587 9588 9890 0
9589 9582 9591 0
9584 9590 9886 0
7194 9887 9891 0
7194 9891 6932 0
9319 6932 9891 0
9888 9309 9319 0
9587 9892 9889 0
9890 9892 9587 0
9592 9591 9893 0
9590 9894 9895 0
9593 9894 9590 0
9594 9896 9593 0
9593 9896 9894 0
9897 9586 9898 0
9595 9586 9897 0
9588 9899 9890 0
9325 9893 9900 0
9325 9592 9893 0
9594 9901 9896 0
9596 9901 9594 0
9597 9902 9596 0
9596 9902 9901 0
9595 9897 9598 0
9588 9903 9899 0
9588 9599 9903 0
9599 9904 9903 0
9602 9904 9599 0
9325 9900 9905 0
9597 9906 9902 0
9600 9906 9597 0
9326 9907 9600 0
9600 9907 9906 0
9907 9326 9061 0
9908 9907 9061 0
9897 9601 9598 0
9897 9909 9601 0
9325 9905 9910 0
9327 9325 9910 0
9328 9327 9911 0
9327 9910 9911 0
9061 9603 9908 0
9908 9603 9912 0
9608 9065 9913 0
9909 9329 9601 0
8308 9914 9602 0
9612 9914 9330 0
9330 9914 8308 0
9328 9911 9915 0
9604 9328 9915 0
9604 9915 9331 0
9332 9331 9916 0
9916 9333 9332 0
9603 9917 9912 0
9605 9917 9603 0
9606 9917 9605 0
9607 9608 9918 0
9329 9919 9610 0
9330 9611 9612 0
9333 9916 9613 0
9335 9613 9920 0
9920 9336 9335 0
9614 9917 9606 0
9610 9919 9921 0
9921 9616 9610 0
9336 9920 9618 0
9922 9617 9618 0
9614 9923 9917 0
9615 9620 9924 0
9615 9924 9609 0
9612 9622 9925 0
9617 9922 9926 0
9923 9614 9927 0
9927 9614 9624 0
9924 9620 9345 0
9624 9928 9927 0
9629 9928 9624 0
8617 9929 9629 0
9629 9929 9928 0
9929 8617 9630 0
9636 9634 9930 0
9931 9636 9930 0
9635 9636 9931 0
9635 9931 9932 0
9933 9932 9931 0
9934 9933 9931 0
9622 9935 9925 0
9622 9936 9935 0
9622 9631 9936 0
9631 9628 9936 0
9937 9619 9938 0
8332 9619 9937 0
9933 9635 9932 0
9640 9635 9933 0
9640 9933 9939 0
9939 9933 9934 0
9925 9935 9612 0
9936 9940 9935 0
9637 9617 9926 0
9941 9630 8849 0
8332 9937 9357 0
9937 9942 9357 0
9943 9939 9934 0
9612 9939 9943 0
9940 9939 9935 0
9939 9612 9935 0
9632 9641 9944 0
9637 9926 9945 0
8849 9946 9941 0
8849 8624 9946 0
9947 9942 9948 0
9947 9645 9942 0
9645 9357 9942 0
9644 9640 9939 0
9949 9946 8624 0
9949 8624 9649 0
9649 8624 8068 0
9645 9947 9950 0
9645 9950 9646 0
9651 9352 8856 0
9951 9952 9953 0
9954 9951 9953 0
9939 9955 9956 0
9939 9956 9644 0
9957 9649 9648 0
9646 9950 9650 0
9951 9958 9959 0
9952 9951 9960 0
9960 9951 9959 0
9960 9953 9952 0
9658 9653 9956 0
9653 9644 9956 0
9961 9957 9648 0
9962 9947 9948 0
9963 9962 9948 0
9950 9947 9964 0
9964 9947 9962 0
9650 9964 9655 0
9950 9964 9650 0
9651 8865 9965 0
9661 9959 9958 0
9661 9958 9662 0
9664 9959 9661 0
9657 9959 9664 0
9960 9959 9657 0
9656 9960 9657 0
9104 9966 9099 0
9966 9104 9105 0
9967 9371 9367 0
9961 9648 9654 0
9961 9654 9968 0
9968 9654 9090 0
9667 9962 9963 0
9667 9963 9674 0
9666 9962 9667 0
9964 9962 9666 0
9655 9964 9666 0
9105 9969 9966 0
9105 9970 9969 0
9105 9670 9970 0
9971 9670 9671 0
9665 9968 9090 0
8865 9659 9668 0
9663 9662 9669 0
9971 9671 9672 0
9665 9372 9972 0
9972 9372 9375 0
9971 9672 9385 0
9971 9385 9973 0
9973 9385 9974 0
9679 9972 9375 0
9975 9972 9679 0
9675 9393 9382 0
9380 9976 9680 0
9679 9682 9975 0
9382 9393 8393 0
9385 9977 9974 0
9976 9684 9680 0
9978 9684 9976 0
9975 9682 9979 0
9977 9385 9390 0
9684 9978 9980 0
9685 9684 9980 0
9685 9980 9981 0
9981 9979 9687 0
9687 9979 9682 0
9982 9977 9688 0
9977 9390 9688 0
9685 9981 9689 0
9687 9689 9981 0
9983 9693 9692 0
9694 9693 9983 0
9688 9394 9982 0
9983 9692 9984 0
9692 9985 9984 0
9692 9691 9985 0
9986 9695 9699 0
9986 9987 9695 0
9695 9987 9696 0
9398 9696 9988 0
9696 9987 9988 0
8137 9393 9134 0
9984 9989 9990 0
9989 9991 9990 0
9691 9698 9989 0
9691 9989 9985 0
9985 9989 9984 0
9398 9988 9992 0
9398 9992 9142 0
9137 9142 9993 0
9142 9992 9993 0
9393 9136 9134 0
9137 9993 9702 0
9140 9402 7838 0
9704 9402 9140 0
9704 9705 9402 0
9989 9994 9991 0
9698 9706 9994 0
9989 9698 9994 0
9703 9702 9995 0
9707 9703 9995 0
9707 9995 9996 0
9997 9402 9705 0
9997 9705 9708 0
9994 9998 9991 0
9706 9714 9998 0
9706 9998 9994 0
9999 10000 9991 0
10001 10000 9999 0
9998 10002 9991 0
10002 9999 9991 0
9714 9713 10002 0
9998 9714 10002 0
9708 9711 9997 0
9149 10003 8901 0
9999 10004 10001 0
10002 10004 9999 0
10005 10004 10002 0
10005 10002 9713 0
10005 9713 10006 0
10006 9713 9715 0
9711 9717 9997 0
10003 9719 8901 0
10006 9715 9720 0
10007 10006 9720 0
10008 10007 9721 0
10007 9720 9721 0
10009 10010 10011 0
10011 10010 10012 0
10012 10010 10013 0
10013 10010 10014 0
9721 10015 10008 0
10015 10010 10008 0
10016 10010 10015 0
10014 10010 10016 0
10017 10014 10016 0
10016 10018 10019 0
10017 10016 10019 0
10019 10018 10020 0
9413 9710 9726 0
9717 9722 10021 0
9721 9429 10015 0
9431 10015 9429 0
9724 10015 9431 0
10016 10015 9724 0
9725 10016 9724 0
9728 10016 9725 0
9728 10018 10016 0
10022 10020 10018 0
9728 10022 10018 0
9726 10023 9727 0
9728 9731 10024 0
9728 10024 10022 0
9731 10025 10026 0
10024 9731 10026 0
9727 10023 9730 0
10023 9445 9730 0
10023 10027 9445 0
10027 9444 9445 0
9732 9731 9447 0
9732 10028 9731 0
10028 10025 9731 0
10029 10025 10028 0
9449 10030 9734 0
9449 9444 10030 0
10031 10032 9441 0
9441 10032 9722 0
10028 9733 10033 0
9732 9733 10028 0
10029 10028 10034 0
10034 10028 10033 0
10030 9735 9734 0
9737 9735 10030 0
9739 9738 9737 0
10031 9739 9737 0
9441 9736 9739 0
10031 9441 9739 0
9741 10033 9733 0
9741 10035 10033 0
10035 10034 10033 0
10036 10034 10035 0
10035 9743 10037 0
9741 9743 10035 0
10036 10035 10037 0
10038 10039 10040 0
9747 10037 9743 0
9747 10041 10037 0
10041 10036 10037 0
10042 10036 10041 0
10038 10042 10041 0
10039 10038 10041 0
9751 10039 10041 0
9751 10041 9747 0
10043 9751 9750 0
10043 9750 9753 0
10043 9753 10044 0
10044 9753 10045 0
9192 9744 10046 0
9745 10047 9748 0
10047 8199 9748 0
9753 10048 10045 0
9752 10048 9753 0
9203 10049 9752 0
9752 10049 10048 0
9203 9754 10049 0
10047 10050 8199 0
9754 9465 10051 0
8199 10050 7088 0
10051 9465 9466 0
10052 10051 9466 0
7088 10053 7383 0
10054 10055 9755 0
10055 10056 9755 0
9466 9209 10052 0
9467 9757 10054 0
9755 9467 10054 0
9755 10057 9468 0
9468 10057 9756 0
9759 9756 10058 0
9756 10057 10058 0
9757 9758 10054 0
10054 9758 10059 0
9759 10060 9472 0
9472 10060 9760 0
9760 10060 10061 0
10061 10062 9760 0
10052 9209 10063 0
9761 10059 9758 0
9760 10062 9474 0
9474 10062 9473 0
9473 10062 10064 0
10065 10063 9478 0
9478 10063 9209 0
9473 10064 9476 0
9762 9476 10064 0
9764 9762 10064 0
9765 9764 10066 0
10067 9765 10066 0
10065 9478 9770 0
9469 9763 10068 0
10067 9768 9765 0
9766 9768 10067 0
9774 9767 9766 0
9774 9766 10069 0
9770 10069 9766 0
10070 10069 9770 0
9770 9769 10070 0
10068 9763 9771 0
10071 10068 9771 0
9776 9774 10069 0
10070 9776 10069 0
9769 9776 10070 0
9771 9777 10071 0
10071 9777 10072 0
9777 10073 10072 0
10073 9777 9781 0
9781 9783 10073 0
10074 10075 10076 0
9783 9786 10077 0
10078 10079 10080 0
10076 10075 10081 0
10077 9786 10082 0
10074 10078 10083 0
10081 10075 10074 0
9786 9787 10082 0
10084 10080 10079 0
10085 10084 10079 0
10078 10080 10084 0
10083 10078 10084 0
10081 10074 10086 0
10086 10087 10081 0
9788 10082 9787 0
9791 10084 10085 0
9791 10085 9798 0
9790 10084 9791 0
10083 10084 9790 0
9793 10083 9790 0
9793 10074 10083 0
10086 10074 9793 0
9788 9789 9500 0
10085 10088 9798 0
9793 9792 10089 0
10086 9793 10089 0
9497 10090 9498 0
10090 9497 9499 0
10091 9788 9500 0
9792 9795 10089 0
10092 10086 10089 0
10092 10089 9796 0
10092 9796 10093 0
9795 9796 10089 0
10094 10090 9499 0
9251 10094 9499 0
9500 10095 10091 0
10095 9500 10096 0
9798 10088 9797 0
10088 9799 9797 0
9799 10088 9511 0
9796 9800 10093 0
9511 10097 9801 0
10088 10097 9511 0
9801 10098 9803 0
10097 10098 9801 0
9255 10099 8524 0
10096 9500 10100 0
10101 10098 10097 0
10102 10101 10097 0
9803 10098 10103 0
10098 10101 10103 0
9803 10103 9806 0
8524 10099 8992 0
10104 10100 9809 0
9809 10100 9500 0
10101 9813 10103 0
10103 9813 9806 0
9808 9810 10105 0
9808 10105 9807 0
8767 9812 10106 0
10106 8993 8767 0
10107 10108 10109 0
10107 10104 10108 0
10104 10110 10108 0
9809 8532 10110 0
10104 9809 10110 0
9810 9816 10105 0
9816 10111 10105 0
10112 10109 10108 0
10113 10109 10112 0
9256 10112 10110 0
10110 10112 10108 0
8532 9256 10110 0
9813 10114 9814 0
9816 9815 10115 0
9256 10113 10112 0
9256 9515 10113 0
9515 10116 10113 0
9817 10114 10117 0
9814 10114 9817 0
9824 10116 9515 0
9821 9817 10117 0
9815 9823 10115 0
9823 10118 10115 0
9825 10119 9824 0
9825 10120 10119 0
9821 10117 10121 0
9821 10121 9519 0
10118 9823 10122 0
10120 9825 8543 0
10123 10120 8543 0
9519 10121 9829 0
9829 10121 10124 0
9823 9827 10122 0
10122 9827 10125 0
8543 9267 10123 0
10123 9267 10126 0
10127 9831 9830 0
10127 9830 10128 0
10124 9830 9829 0
10128 9830 10124 0
10125 9827 9832 0
10126 9267 9531 0
10129 10130 10131 0
10132 10129 10131 0
10127 10131 10130 0
10127 10130 9831 0
9832 9836 10133 0
9522 9523 10134 0
9833 10135 9834 0
9834 10135 9837 0
10132 10136 10137 0
10132 10137 10129 0
10129 10137 9842 0
9838 10130 9842 0
10130 10129 9842 0
9831 10130 9838 0
10133 9836 9840 0
10138 9528 9522 0
9833 9528 10138 0
10135 9833 10138 0
9004 10139 9531 0
9842 10137 10136 0
10140 9842 10136 0
10141 9841 9837 0
10141 9540 9841 0
10142 9539 9845 0
10143 9844 10144 0
10143 10144 10145 0
10144 9844 9544 0
10143 10145 10146 0
9848 10147 9849 0
9851 10148 9544 0
10149 10148 9851 0
9544 10148 10144 0
10150 10146 10145 0
9540 10151 9270 0
9548 10152 9848 0
9848 10152 10147 0
9851 9850 10153 0
10149 9851 10153 0
10154 10149 10153 0
10154 10155 10156 0
10154 10156 10149 0
10148 10149 10157 0
10157 10149 10156 0
10144 10148 10157 0
10145 10144 10157 0
10157 10150 10145 0
9270 10158 9859 0
10151 10158 9270 0
9856 9547 9862 0
9856 9862 10159 0
10159 9862 9861 0
9548 9856 10159 0
10160 9548 10159 0
10152 9548 10160 0
9853 10161 9863 0
10161 10162 9863 0
9857 10163 10164 0
9859 10158 10165 0
9859 10165 9858 0
9865 9858 10166 0
9858 10165 10166 0
9860 9550 9865 0
9860 9865 10167 0
10168 9860 10167 0
9861 9860 10168 0
9863 10162 10169 0
9866 9863 10169 0
9867 10169 10170 0
9867 9866 10169 0
9864 10163 9857 0
9864 10171 10163 0
10171 10172 10163 0
10173 10164 10163 0
10172 10173 10163 0
9864 9867 10170 0
10171 9864 10170 0
9868 9871 10174 0
9553 9871 9868 0
9870 10175 9556 0
9870 9869 10175 0
9868 10175 9869 0
10176 10175 9868 0
9283 9873 9872 0
9286 10177 9558 0
9286 9559 10177 0
9876 10178 9559 0
9876 9875 10178 0
9877 10179 9875 0
9881 9882 10180 0
9881 10180 10179 0
9881 10179 9877 0
9878 9874 10181 0
9878 10181 9574 0
9569 10182 9563 0
9301 9571 9880 0
9882 9577 10183 0
9577 10184 10183 0
9885 10184 9577 0
10182 9569 9888 0
10185 9576 9301 0
9306 9576 10185 0
9884 9886 10186 0
9884 10186 10184 0
9884 10184 9885 0
9574 10181 9887 0
10181 10187 9887 0
9579 10188 9586 0
10188 9579 9580 0
9580 9581 9889 0
9883 9306 10189 0
10190 9883 10189 0
9591 9883 10190 0
9591 9582 9883 0
9886 9590 10191 0
9590 10192 10191 0
9895 10192 9590 0
9887 10187 10193 0
9891 9887 10193 0
9586 10188 9898 0
9898 10188 9580 0
9892 10194 9889 0
9890 10194 9892 0
9893 9591 10195 0
9591 10196 10195 0
9895 10197 10192 0
9895 9894 10197 0
9894 9896 10197 0
9897 9898 10198 0
9890 10199 10194 0
9890 9899 10199 0
9899 10200 10199 0
9893 10195 10201 0
9900 9893 10201 0
10202 9897 10198 0
9899 10203 10200 0
9903 10203 9899 0
9602 10204 10203 0
9602 10203 9904 0
9904 10203 9903 0
9905 9900 10201 0
9909 9897 10202 0
9602 10205 10204 0
9905 10201 10206 0
9905 10206 9910 0
9910 10206 10207 0
9911 9910 10207 0
10208 9907 9908 0
10208 9908 10209 0
10209 9908 9912 0
9909 10202 9329 0
9602 9914 10210 0
9602 10210 10205 0
9914 9612 10210 0
9911 10207 10211 0
9911 10211 9915 0
9331 9915 10212 0
9916 9331 10212 0
9917 9923 9912 0
9923 10209 9912 0
9918 9608 9913 0
9066 9609 10213 0
9329 10202 9919 0
10210 10214 10205 0
9916 10212 10215 0
9916 10215 9613 0
9613 10215 10216 0
9920 9613 10216 0
10213 9609 9924 0
10217 10213 9924 0
9618 10216 9922 0
9618 9920 10216 0
9918 10218 9607 0
9930 9625 9921 0
9921 9625 9616 0
10210 10219 10214 0
10219 10220 10214 0
9612 9943 10219 0
10210 9612 10219 0
9922 10221 9926 0
9926 10221 10222 0
10218 9619 9607 0
10218 10223 9619 0
9625 9930 9347 0
9634 9347 9930 0
10224 9931 9930 0
10220 9934 9931 0
10219 9934 10220 0
9943 9934 10219 0
9928 10225 9923 0
9928 9923 9927 0
9619 10223 9938 0
10226 9345 9633 0
9346 10227 9628 0
10227 9346 9632 0
9926 10222 10228 0
9928 10229 10225 0
9929 10229 9928 0
9938 10223 9937 0
10223 9942 9937 0
9633 9087 10226 0
10230 9940 9936 0
9630 9941 10231 0
9940 10230 10232 0
9945 9926 10228 0
9946 10231 9941 0
10233 10231 9946 0
9087 10234 10235 0
9352 10234 9087 0
9939 9940 10236 0
9940 10232 10236 0
9641 10237 9944 0
10237 9641 9647 0
9945 10228 9637 0
9949 10233 9946 0
9352 9651 10238 0
10239 9951 9954 0
9954 10240 10239 0
9953 10240 9954 0
10241 9956 9955 0
9939 10242 9955 0
10242 10241 9955 0
10236 10242 9939 0
9649 10243 9949 0
9649 9957 10243 0
9951 10239 9958 0
9953 9960 10240 0
9656 10240 9960 0
9658 10240 9656 0
10241 10240 9658 0
9956 10241 9658 0
9647 9370 10237 0
10243 9957 9961 0
9651 9965 10244 0
10238 9651 10244 0
9958 10245 9662 0
10246 9970 10247 0
10243 9961 9968 0
10248 10243 9968 0
10249 10244 9965 0
10249 9965 10250 0
10250 9965 8865 0
10245 10251 9662 0
9966 9969 10246 0
9970 10246 9969 0
9970 10252 10247 0
9970 9670 10252 0
10252 9670 9971 0
9968 9665 10248 0
10248 9665 10253 0
10254 10250 8865 0
10255 9669 10251 0
9669 9662 10251 0
10252 9971 9973 0
10256 10252 9973 0
10253 9665 9972 0
10257 10253 9972 0
8865 10258 10254 0
9668 10258 8865 0
9668 9677 10258 0
9677 10259 10258 0
10260 9678 10255 0
10260 10259 9678 0
10259 9677 9678 0
9669 10255 9678 0
10256 9973 9974 0
10261 10257 9972 0
9972 9975 10261 0
9675 9674 9393 0
9974 10262 10256 0
9974 9977 10262 0
10263 9978 9976 0
10261 9975 10264 0
9977 10265 10262 0
9978 10263 10266 0
10264 10267 10268 0
9975 9979 10267 0
10264 9975 10267 0
9977 9982 10265 0
9978 10266 9980 0
10268 9980 10266 0
9981 9980 10268 0
10267 9981 10268 0
9979 9981 10267 0
10269 10270 10271 0
10272 10270 10269 0
10273 10271 10270 0
10273 9983 10271 0
9694 9983 10273 0
10274 9694 10273 0
9694 10274 10275 0
10275 10276 9986 0
9986 10277 10278 0
10276 10277 9986 0
9982 9394 10279 0
10272 10269 10280 0
10269 10281 10280 0
9983 10281 10271 0
10271 10281 10269 0
9694 10275 9699 0
9986 9699 10275 0
9987 9986 10282 0
10282 9986 10278 0
10283 10282 10278 0
10284 10280 10285 0
9984 9990 10280 0
10281 9984 10280 0
9983 9984 10281 0
9988 9987 10282 0
10283 9988 10282 0
9988 10283 10286 0
9394 9697 10287 0
9697 10288 10289 0
9697 10289 10287 0
8137 8402 9393 0
10290 10291 10285 0
9991 10290 10280 0
10280 10290 10285 0
9990 9991 10280 0
9988 10286 9992 0
9993 9992 10286 0
10292 10293 9993 0
9697 9700 10288 0
9700 9400 10288 0
9400 9135 10294 0
9400 10294 10288 0
10295 10291 10290 0
9991 10000 10295 0
10290 9991 10295 0
9702 9993 10293 0
9135 10296 10294 0
9135 9402 10296 0
10297 10295 10000 0
10297 10000 10298 0
9702 10293 9995 0
9996 9995 10293 0
10299 9996 10293 0
9996 10299 9709 0
9997 10300 9402 0
10298 10000 10301 0
9996 9709 9707 0
9997 10302 10300 0
9136 10003 9149 0
10004 10301 10001 0
10301 10000 10001 0
10302 9997 10303 0
10304 10004 10005 0
10005 10006 10305 0
10005 10305 10304 0
9997 9717 10303 0
10007 10305 10006 0
10007 10306 10305 0
10306 10307 10305 0
10308 10307 10306 0
10303 9717 10021 0
10007 10008 10306 0
10010 10306 10008 0
10308 10306 10010 0
10009 10308 10010 0
10014 10309 10013 0
10014 10017 10309 0
10309 10017 10310 0
10017 10019 10310 0
10310 10019 10020 0
10311 10310 10020 0
10312 10021 9722 0
10311 10020 10022 0
10022 10024 10313 0
10024 10026 10313 0
10026 10314 10313 0
10315 10312 10316 0
10312 9722 10316 0
10026 10025 10314 0
9444 10027 10030 0
10315 10316 10317 0
10316 10318 10317 0
9722 10032 10318 0
10316 9722 10318 0
10025 10029 10319 0
10025 10319 10320 0
10025 10320 10314 0
9737 10030 10321 0
10031 9737 10317 0
10318 10031 10317 0
10032 10031 10318 0
10319 10034 10322 0
10029 10034 10319 0
10323 10319 10322 0
10034 10036 10322 0
10042 10322 10036 0
10323 10322 10042 0
10042 10324 10325 0
10042 10325 10323 0
10042 10326 10324 0
10326 10327 10324 0
10040 10327 10326 0
10040 10328 10329 0
10328 10330 10331 0
10329 10328 10331 0
10042 10038 10326 0
10040 10326 10038 0
10328 10040 10039 0
10039 10332 10328 0
10332 10330 10328 0
10331 10330 10043 0
10043 10330 10332 0
10331 10043 10333 0
10039 9751 10332 0
10043 10332 9751 0
10043 10044 10333 0
10334 10333 10044 0
10045 10334 10044 0
10046 10335 9192 0
9192 10335 9745 0
9745 10335 10047 0
10045 10336 10334 0
10045 10048 10336 0
10048 10049 10336 0
10336 10049 9754 0
10337 10046 9744 0
10338 10337 9744 0
10335 10046 10339 0
10339 10046 10337 0
10339 10340 10335 0
10047 10340 10050 0
10335 10340 10047 0
10341 10050 10340 0
10341 10342 10050 0
10342 7088 10050 0
10051 10052 10343 0
7088 10342 10053 0
10344 10345 10346 0
10055 10054 10347 0
10055 10347 10345 0
10345 10347 10346 0
10056 10055 10345 0
10348 10056 10345 0
10348 10349 10056 0
10056 10349 9755 0
9755 10349 10350 0
10351 10343 10352 0
10343 10052 10352 0
9755 10350 10057 0
10058 10057 10350 0
10058 10353 9759 0
9759 10353 10354 0
10355 10356 10357 0
10355 10358 10356 0
10358 10347 10356 0
10054 10059 10356 0
10347 10054 10356 0
9759 10354 10060 0
10061 10060 10354 0
10359 10061 10354 0
10062 10061 10359 0
10062 10359 10360 0
10361 10360 10359 0
10362 10361 10359 0
10351 10352 10363 0
10065 10363 10352 0
10052 10063 10065 0
10352 10052 10065 0
10356 10364 10357 0
10364 10356 10059 0
10064 10062 10360 0
9764 10064 10360 0
10361 9764 10360 0
10066 9764 10361 0
10067 10066 10361 0
10067 10361 10365 0
10365 10361 10362 0
10366 10365 10362 0
10363 10365 10366 0
10367 10365 10363 0
10065 9770 10367 0
10065 10367 10363 0
9766 10067 10365 0
9770 9766 10365 0
10367 9770 10365 0
9761 9469 10368 0
10368 9469 10068 0
10369 10368 10068 0
10068 10071 10369 0
10369 10071 10072 0
10370 10371 10372 0
10371 10370 10373 0
10073 9783 10374 0
10371 10373 10076 0
10375 10371 10076 0
10076 10373 10078 0
10074 10076 10078 0
10376 10375 10076 0
9783 10077 10377 0
10373 10370 10079 0
10078 10373 10079 0
10081 10378 10076 0
10376 10076 10378 0
10077 10082 10379 0
10377 10077 10379 0
10380 10381 10376 0
10079 10382 10085 0
10081 10087 10378 0
10376 10378 10383 0
10383 10380 10376 0
10384 10383 10087 0
10087 10383 10378 0
10380 10383 10384 0
10382 10088 10085 0
10385 10384 10087 0
10086 10385 10087 0
10092 10093 10386 0
10086 10092 10387 0
10387 10092 10386 0
10385 10086 10387 0
9498 10388 9508 0
10090 10389 9498 0
9498 10389 10388 0
10094 10389 10090 0
10095 9788 10091 0
10382 10390 10088 0
8765 10391 9510 0
10095 10096 10392 0
10393 10088 10390 0
10088 10393 10097 0
10093 9800 10394 0
10393 10395 10097 0
10096 10100 10392 0
10097 10395 10102 0
9800 9807 10394 0
10396 8992 10099 0
10104 10107 10392 0
10107 10397 10392 0
10100 10104 10392 0
9813 10101 10102 0
9813 10102 10398 0
10398 10102 10395 0
9807 10105 10394 0
8992 10396 9514 0
9811 9514 10396 0
10397 10107 10109 0
10399 10397 10109 0
10105 10111 10394 0
10113 10399 10109 0
9813 10400 10114 0
9816 10115 10401 0
9816 10401 10111 0
10111 10401 10394 0
10116 10402 10113 0
10403 10402 10116 0
10400 10404 10405 0
10114 10405 10117 0
10400 10405 10114 0
10401 10115 10406 0
10116 10407 10403 0
10116 10119 10407 0
10116 9824 10119 0
10117 10405 10408 0
10405 10404 10408 0
10115 10118 10406 0
8993 10409 9518 0
10410 10407 10120 0
10407 10119 10120 0
10408 10411 10121 0
10117 10408 10121 0
10123 10410 10120 0
10123 10126 10410 0
10411 10412 10413 0
10121 10413 10124 0
10411 10413 10121 0
10412 10414 10127 0
10128 10412 10127 0
10413 10412 10128 0
10124 10413 10128 0
10125 9832 10415 0
10414 10132 10131 0
10127 10414 10131 0
10416 9531 10139 0
10414 10136 10132 0
10417 10136 10414 0
10418 10140 10417 0
10140 10136 10417 0
10141 9837 10135 0
10140 10419 9842 0
10418 10419 10140 0
10143 10420 9844 0
10420 10143 10146 0
10421 10420 10146 0
10422 9540 10141 0
10423 9850 9849 0
10424 10150 10425 0
10424 10421 10150 0
10421 10146 10150 0
9842 10419 9853 0
9540 10426 10151 0
9849 10147 10427 0
10147 10152 10427 0
