#!ascii version written be Caret
17949 35894
47 46 45 0
16 48 49 0
17 16 49 0
48 16 18 0
41 18 20 0
43 20 19 0
21 43 19 0
23 17 49 0
45 27 50 0
26 27 45 0
47 45 50 0
23 51 24 0
47 50 52 0
24 51 28 0
7 30 31 0
8 31 32 0
50 27 33 0
50 33 53 0
52 50 53 0
54 52 53 0
55 51 56 0
28 51 57 0
51 55 57 0
28 58 34 0
57 58 28 0
58 59 34 0
34 59 35 0
57 55 60 0
58 57 60 0
61 62 63 0
64 63 62 0
65 61 66 0
62 61 65 0
65 67 68 0
62 65 68 0
69 70 64 0
71 68 67 0
64 62 72 0
72 62 68 0
73 64 72 0
73 70 69 0
73 69 64 0
74 68 71 0
75 72 68 0
76 77 78 0
76 78 68 0
75 68 78 0
79 78 77 0
80 79 77 0
75 78 79 0
81 75 79 0
82 37 83 0
37 12 83 0
84 85 86 0
87 84 86 0
88 11 36 0
88 36 89 0
89 36 37 0
12 90 83 0
91 46 92 0
84 93 94 0
84 94 95 0
42 85 95 0
85 84 95 0
21 85 42 0
86 85 21 0
38 86 21 0
96 86 38 0
39 96 38 0
88 96 39 0
11 88 39 0
12 22 90 0
44 90 22 0
91 90 44 0
46 91 44 0
97 98 99 0
100 18 40 0
100 40 93 0
93 41 94 0
93 40 41 0
20 94 41 0
95 94 20 0
42 95 20 0
47 97 46 0
47 101 97 0
101 98 97 0
99 98 102 0
102 98 101 0
99 102 103 0
100 49 48 0
18 100 48 0
101 47 104 0
102 101 105 0
105 101 104 0
105 103 102 0
23 106 51 0
47 52 104 0
107 103 105 0
106 108 109 0
51 106 56 0
30 110 31 0
32 31 111 0
33 32 111 0
33 111 53 0
104 52 54 0
104 54 112 0
105 104 112 0
113 105 112 0
107 105 113 0
106 109 56 0
35 59 114 0
115 30 35 0
114 115 35 0
116 109 108 0
56 109 116 0
56 117 55 0
56 116 117 0
55 118 60 0
117 118 55 0
118 119 60 0
60 119 58 0
117 116 120 0
118 117 120 0
63 121 122 0
123 121 63 0
124 125 123 0
122 66 61 0
63 122 61 0
124 123 63 0
126 124 63 0
127 65 128 0
128 65 66 0
65 127 129 0
65 129 67 0
64 130 63 0
130 126 63 0
129 131 67 0
64 70 130 0
126 130 70 0
132 133 134 0
131 71 67 0
71 131 135 0
135 74 71 0
72 75 136 0
72 137 73 0
136 137 72 0
73 137 70 0
134 126 138 0
138 132 134 0
126 70 139 0
140 126 139 0
140 132 138 0
140 138 126 0
68 74 141 0
68 141 76 0
76 141 142 0
142 77 76 0
143 77 142 0
75 81 136 0
70 137 144 0
144 139 70 0
77 143 80 0
136 81 145 0
137 136 145 0
144 137 146 0
79 80 147 0
148 81 79 0
81 149 145 0
137 145 150 0
150 145 149 0
150 146 137 0
79 147 151 0
148 79 151 0
149 81 148 0
150 149 148 0
152 37 82 0
83 152 82 0
83 153 152 0
83 90 153 0
86 154 87 0
87 154 155 0
156 154 86 0
96 156 86 0
152 88 89 0
37 152 89 0
157 90 91 0
157 91 158 0
91 92 158 0
46 159 92 0
92 159 158 0
84 87 93 0
46 97 159 0
99 159 97 0
160 159 99 0
99 161 160 0
161 99 103 0
161 103 162 0
49 163 23 0
23 164 106 0
163 164 23 0
106 164 108 0
165 166 115 0
30 115 167 0
115 166 167 0
167 168 110 0
167 110 30 0
169 110 168 0
31 110 169 0
170 31 169 0
170 171 31 0
31 171 111 0
54 53 172 0
53 111 172 0
54 172 112 0
58 173 59 0
59 173 165 0
165 114 59 0
115 114 165 0
58 119 174 0
174 173 58 0
175 176 177 0
177 176 178 0
178 176 179 0
180 181 182 0
183 180 182 0
176 182 181 0
184 185 186 0
187 184 186 0
180 186 185 0
188 176 189 0
179 176 190 0
190 176 188 0
190 191 179 0
181 180 192 0
176 181 192 0
189 176 193 0
187 194 195 0
187 195 184 0
185 184 196 0
193 176 192 0
180 185 192 0
192 197 193 0
189 193 197 0
198 189 197 0
184 195 196 0
185 196 192 0
199 192 196 0
200 201 202 0
200 203 204 0
205 202 201 0
200 204 206 0
207 200 206 0
201 200 207 0
205 201 207 0
208 204 203 0
209 208 203 0
121 206 208 0
206 204 208 0
207 206 121 0
123 207 121 0
125 207 123 0
125 205 207 0
121 209 122 0
208 209 121 0
125 124 210 0
205 125 210 0
122 209 66 0
126 210 124 0
211 128 66 0
126 212 210 0
212 205 210 0
213 205 214 0
214 205 212 0
211 215 128 0
128 215 127 0
216 214 212 0
214 216 217 0
215 218 129 0
127 215 129 0
134 212 126 0
216 212 134 0
134 133 217 0
134 217 216 0
217 133 219 0
129 218 131 0
220 131 218 0
219 133 221 0
221 222 219 0
221 133 132 0
135 131 223 0
141 74 224 0
224 74 135 0
139 144 225 0
139 226 140 0
225 226 139 0
140 226 132 0
141 224 227 0
142 141 227 0
228 142 227 0
228 143 142 0
225 146 229 0
144 146 225 0
226 225 230 0
132 226 230 0
221 132 230 0
80 143 147 0
146 150 231 0
146 231 229 0
231 232 229 0
225 229 233 0
233 229 232 0
234 230 233 0
233 230 225 0
235 221 230 0
151 147 236 0
237 148 236 0
148 151 236 0
148 231 150 0
237 231 148 0
238 232 231 0
231 237 239 0
231 239 240 0
238 231 240 0
241 238 240 0
96 242 243 0
244 156 245 0
245 156 96 0
152 96 88 0
242 96 152 0
153 242 152 0
242 153 246 0
153 90 246 0
157 247 90 0
90 247 246 0
157 248 247 0
249 87 155 0
154 250 155 0
244 250 154 0
156 244 154 0
157 158 248 0
159 248 158 0
160 248 159 0
160 161 251 0
251 161 252 0
253 49 100 0
93 253 100 0
249 253 93 0
87 249 93 0
252 161 162 0
254 252 162 0
49 253 255 0
254 162 256 0
162 103 256 0
256 103 257 0
163 258 164 0
171 170 259 0
259 170 260 0
261 259 260 0
103 107 257 0
257 107 262 0
164 258 108 0
263 166 165 0
167 166 263 0
111 171 259 0
261 111 259 0
261 264 111 0
111 264 172 0
113 112 265 0
112 172 265 0
262 107 113 0
265 262 113 0
165 173 266 0
267 268 269 0
108 270 116 0
118 271 119 0
173 174 271 0
271 174 119 0
272 177 273 0
268 267 274 0
274 267 178 0
116 270 275 0
116 275 120 0
120 275 276 0
118 120 277 0
277 271 118 0
278 176 175 0
278 175 177 0
273 177 178 0
274 178 179 0
191 274 179 0
191 268 274 0
279 180 183 0
279 183 280 0
278 280 182 0
280 183 182 0
176 278 182 0
281 268 282 0
281 283 268 0
279 284 186 0
284 187 186 0
180 279 186 0
191 190 285 0
268 191 286 0
286 191 285 0
287 282 286 0
286 282 268 0
281 282 287 0
288 281 287 0
190 289 285 0
286 285 289 0
290 286 289 0
287 286 290 0
291 195 194 0
291 194 292 0
293 194 187 0
189 294 188 0
190 188 294 0
295 190 294 0
296 190 295 0
297 298 197 0
298 198 197 0
189 198 299 0
299 198 298 0
294 189 299 0
292 300 301 0
292 301 291 0
195 291 196 0
297 197 192 0
291 301 302 0
291 302 196 0
302 301 303 0
196 302 303 0
196 303 199 0
304 303 301 0
305 303 306 0
305 199 303 0
307 301 308 0
304 301 307 0
304 306 303 0
309 304 307 0
310 311 312 0
313 311 314 0
312 311 202 0
202 311 315 0
316 312 202 0
317 311 313 0
318 317 313 0
200 315 317 0
315 311 317 0
202 315 200 0
319 316 202 0
203 317 318 0
203 318 320 0
200 317 203 0
202 205 319 0
203 320 209 0
66 209 320 0
205 321 322 0
205 213 321 0
213 323 321 0
324 325 326 0
327 324 326 0
326 325 328 0
328 211 329 0
211 66 329 0
323 214 330 0
213 214 323 0
218 325 331 0
325 324 331 0
215 325 218 0
328 325 215 0
211 328 215 0
217 330 214 0
217 323 330 0
332 324 333 0
334 332 333 0
331 324 332 0
335 336 323 0
335 323 337 0
337 323 217 0
332 338 339 0
332 339 331 0
218 339 220 0
331 339 218 0
219 222 217 0
222 337 217 0
335 337 340 0
341 339 338 0
342 341 338 0
342 343 341 0
341 343 339 0
339 344 220 0
339 343 344 0
220 344 131 0
343 342 345 0
344 343 345 0
346 344 345 0
131 344 346 0
337 222 347 0
347 340 337 0
131 346 223 0
224 135 348 0
227 224 348 0
228 348 349 0
228 227 348 0
222 221 350 0
347 222 350 0
228 351 143 0
351 147 143 0
234 235 230 0
235 350 221 0
352 340 347 0
147 351 236 0
232 353 233 0
354 353 232 0
233 353 234 0
235 234 353 0
350 235 355 0
355 235 353 0
352 347 355 0
355 347 350 0
237 236 239 0
238 354 232 0
238 356 354 0
356 357 354 0
357 353 354 0
355 353 358 0
356 241 359 0
238 241 356 0
357 356 360 0
360 356 359 0
241 361 359 0
360 359 361 0
362 360 361 0
241 240 363 0
364 365 366 0
367 364 366 0
365 364 368 0
369 366 365 0
370 371 364 0
368 364 371 0
369 365 372 0
372 365 373 0
372 373 374 0
372 375 376 0
368 371 377 0
378 368 377 0
365 368 373 0
375 372 374 0
368 378 379 0
379 373 368 0
374 376 375 0
380 373 379 0
374 373 380 0
381 374 380 0
382 96 243 0
243 383 382 0
243 384 383 0
243 242 384 0
385 250 386 0
386 244 387 0
386 250 244 0
245 387 244 0
382 387 245 0
96 382 245 0
242 246 388 0
247 388 246 0
389 388 247 0
389 247 390 0
247 248 390 0
248 391 390 0
160 391 248 0
251 391 160 0
391 251 392 0
249 393 253 0
253 393 394 0
385 393 155 0
393 249 155 0
250 385 155 0
395 392 251 0
252 395 251 0
252 254 396 0
252 396 395 0
394 255 253 0
397 255 394 0
254 256 396 0
398 49 255 0
398 255 399 0
399 255 397 0
256 400 396 0
49 398 163 0
401 170 169 0
260 170 401 0
402 260 401 0
260 403 404 0
260 402 403 0
404 405 406 0
403 405 404 0
256 257 400 0
398 407 258 0
163 398 258 0
408 167 263 0
168 167 408 0
260 404 261 0
264 261 404 0
264 404 409 0
409 404 406 0
410 409 406 0
398 411 412 0
398 412 407 0
258 407 108 0
413 165 266 0
263 165 413 0
414 415 416 0
172 264 409 0
410 172 409 0
410 417 172 0
172 417 265 0
418 412 411 0
108 407 270 0
266 173 419 0
420 421 422 0
267 423 422 0
423 420 422 0
269 423 267 0
414 269 268 0
283 414 268 0
283 415 414 0
416 415 424 0
424 415 283 0
407 412 270 0
419 271 277 0
173 271 419 0
425 177 272 0
425 272 273 0
178 421 273 0
422 421 178 0
267 422 178 0
426 412 418 0
270 412 426 0
270 427 275 0
270 426 427 0
427 276 275 0
428 120 276 0
120 428 429 0
419 277 429 0
429 277 120 0
425 430 177 0
430 278 177 0
431 427 426 0
276 427 431 0
432 276 431 0
428 276 432 0
280 433 279 0
430 280 278 0
433 280 430 0
283 281 434 0
424 283 435 0
435 283 434 0
187 284 293 0
434 281 288 0
434 288 436 0
436 288 287 0
435 434 436 0
437 435 436 0
438 290 289 0
287 290 439 0
439 290 438 0
194 440 292 0
440 194 293 0
441 296 295 0
289 190 296 0
289 296 442 0
442 296 441 0
438 289 442 0
297 299 298 0
294 299 443 0
444 295 294 0
441 295 444 0
445 300 292 0
443 299 297 0
446 301 300 0
446 300 447 0
192 199 297 0
448 308 446 0
446 308 301 0
199 449 297 0
448 450 451 0
448 451 308 0
308 451 452 0
308 452 307 0
306 304 453 0
453 305 306 0
199 305 449 0
307 452 454 0
307 454 309 0
304 309 453 0
449 305 453 0
452 451 455 0
454 452 455 0
456 454 455 0
309 454 456 0
456 455 457 0
458 459 460 0
461 458 462 0
463 461 462 0
310 458 461 0
459 458 310 0
460 459 464 0
464 459 310 0
311 461 463 0
311 463 314 0
314 463 465 0
310 461 311 0
312 466 310 0
466 464 310 0
466 467 464 0
468 313 465 0
313 314 465 0
312 316 466 0
316 469 467 0
316 467 466 0
468 318 313 0
469 319 470 0
316 319 469 0
320 318 468 0
319 205 470 0
471 469 470 0
472 320 468 0
322 470 205 0
322 471 470 0
322 321 471 0
66 472 473 0
320 472 66 0
474 475 476 0
66 473 329 0
473 477 329 0
321 478 479 0
478 480 481 0
479 478 481 0
481 480 482 0
324 476 483 0
476 475 483 0
327 476 324 0
327 326 484 0
328 485 326 0
326 485 484 0
477 328 329 0
485 328 477 0
321 323 478 0
323 486 478 0
486 480 478 0
487 482 480 0
486 487 480 0
483 333 324 0
486 323 336 0
486 336 487 0
487 336 488 0
336 335 488 0
332 334 489 0
489 334 333 0
490 335 340 0
491 490 340 0
489 338 332 0
489 492 338 0
492 342 338 0
493 494 495 0
496 493 495 0
497 493 496 0
498 499 495 0
499 496 495 0
342 492 500 0
345 342 500 0
346 345 500 0
497 496 501 0
496 499 501 0
502 501 499 0
223 500 503 0
223 346 500 0
223 503 504 0
223 504 505 0
505 135 223 0
348 135 505 0
505 349 348 0
506 228 349 0
506 349 505 0
228 506 351 0
236 351 506 0
352 507 508 0
352 508 340 0
239 509 510 0
239 236 509 0
353 357 511 0
511 358 353 0
355 507 352 0
355 358 507 0
239 512 240 0
510 512 239 0
511 360 513 0
357 360 511 0
358 511 513 0
514 358 513 0
507 358 514 0
515 508 507 0
514 515 507 0
516 517 518 0
518 517 519 0
519 517 520 0
517 521 520 0
240 512 522 0
362 513 360 0
523 513 362 0
514 513 523 0
515 514 523 0
524 520 521 0
524 521 525 0
525 526 527 0
524 525 527 0
363 528 241 0
523 362 529 0
530 523 529 0
531 523 530 0
532 523 531 0
515 523 532 0
521 517 367 0
525 521 367 0
526 525 366 0
366 525 367 0
366 527 526 0
533 528 363 0
534 241 528 0
367 535 364 0
367 517 535 0
533 363 366 0
533 536 537 0
538 539 540 0
541 517 539 0
535 517 541 0
369 542 366 0
542 533 366 0
536 533 542 0
539 538 543 0
541 539 543 0
544 541 543 0
544 545 370 0
544 370 541 0
541 370 535 0
535 370 364 0
542 372 546 0
369 372 542 0
536 542 546 0
547 370 545 0
370 547 371 0
376 546 372 0
376 536 546 0
548 537 536 0
376 548 536 0
371 547 549 0
371 549 377 0
379 378 550 0
376 374 551 0
551 548 376 0
379 552 553 0
554 555 380 0
554 380 553 0
553 380 379 0
555 381 380 0
555 556 381 0
555 557 556 0
381 558 374 0
374 558 551 0
558 559 551 0
559 548 551 0
381 556 560 0
558 381 560 0
561 558 560 0
559 558 561 0
548 559 561 0
562 383 563 0
386 387 564 0
382 565 387 0
387 565 564 0
382 566 565 0
566 382 383 0
563 383 384 0
563 384 567 0
384 242 567 0
388 567 242 0
389 568 388 0
388 568 567 0
569 570 571 0
386 572 385 0
572 386 564 0
389 390 568 0
391 568 390 0
569 568 391 0
392 569 391 0
570 569 392 0
573 574 570 0
570 392 395 0
575 570 576 0
575 573 570 0
396 570 395 0
396 576 570 0
168 577 169 0
577 578 169 0
398 399 579 0
579 397 394 0
579 399 397 0
168 408 580 0
169 581 401 0
169 578 581 0
582 398 579 0
583 584 263 0
584 585 263 0
263 585 586 0
580 408 586 0
586 408 263 0
587 402 401 0
403 402 587 0
405 403 588 0
403 587 588 0
406 405 588 0
400 257 589 0
589 590 400 0
419 583 266 0
583 413 266 0
263 413 583 0
269 416 591 0
591 416 592 0
410 406 588 0
410 588 593 0
592 594 591 0
589 262 595 0
589 257 262 0
596 590 589 0
582 411 398 0
597 411 582 0
598 583 419 0
599 600 420 0
423 599 420 0
269 599 423 0
416 269 414 0
593 417 410 0
265 417 593 0
595 265 593 0
262 265 595 0
601 597 602 0
601 418 597 0
418 411 597 0
600 273 421 0
420 600 421 0
424 603 416 0
603 592 416 0
603 594 592 0
602 604 601 0
429 605 419 0
605 598 419 0
600 606 273 0
606 425 273 0
607 604 602 0
601 604 608 0
418 608 426 0
601 608 418 0
609 430 610 0
606 430 425 0
610 430 606 0
424 435 603 0
611 604 607 0
612 611 607 0
608 604 611 0
426 608 613 0
426 614 431 0
613 614 426 0
615 431 614 0
615 616 431 0
616 432 431 0
616 428 432 0
609 617 433 0
617 279 433 0
430 609 433 0
618 611 612 0
613 608 611 0
619 613 611 0
615 614 619 0
619 614 613 0
284 620 293 0
617 284 279 0
620 284 617 0
621 436 287 0
436 621 437 0
619 611 622 0
623 619 622 0
615 619 623 0
621 287 439 0
292 440 624 0
449 625 297 0
626 451 450 0
626 450 627 0
627 628 629 0
627 629 626 0
630 449 453 0
626 629 631 0
451 631 455 0
626 631 451 0
453 309 632 0
453 632 630 0
631 629 633 0
455 631 634 0
455 634 457 0
457 632 456 0
456 632 309 0
633 635 636 0
633 636 631 0
634 631 636 0
457 634 636 0
637 457 636 0
637 638 457 0
632 457 638 0
639 640 641 0
460 639 642 0
640 639 460 0
642 462 458 0
460 642 458 0
643 641 640 0
643 640 460 0
462 644 463 0
464 645 460 0
645 643 460 0
644 465 463 0
464 467 645 0
468 465 644 0
646 645 467 0
469 647 467 0
647 646 467 0
469 471 647 0
471 648 649 0
471 649 647 0
650 651 652 0
468 644 472 0
648 321 653 0
471 321 648 0
654 651 655 0
655 656 657 0
654 655 657 0
644 658 472 0
659 648 653 0
648 659 660 0
655 651 474 0
656 655 474 0
661 657 656 0
661 656 474 0
662 658 663 0
662 473 658 0
473 472 658 0
479 653 321 0
479 664 653 0
664 659 653 0
665 660 659 0
664 665 659 0
651 650 666 0
474 667 475 0
474 651 667 0
327 474 476 0
661 474 327 0
327 484 668 0
484 669 670 0
668 484 670 0
663 670 669 0
663 669 662 0
662 669 671 0
473 671 477 0
662 671 473 0
664 672 665 0
664 479 672 0
479 481 672 0
672 481 482 0
667 651 666 0
475 667 483 0
669 484 485 0
671 669 485 0
477 671 485 0
666 673 667 0
483 673 333 0
667 673 483 0
674 675 676 0
333 673 677 0
678 674 676 0
679 680 676 0
680 678 676 0
681 682 679 0
682 680 679 0
683 489 333 0
678 495 494 0
498 495 678 0
680 498 678 0
498 680 684 0
684 680 682 0
683 492 489 0
494 493 685 0
492 683 686 0
684 687 499 0
498 684 499 0
682 688 684 0
688 687 684 0
500 492 686 0
689 493 497 0
502 499 687 0
502 687 690 0
690 687 688 0
691 688 692 0
503 500 686 0
501 693 689 0
501 689 497 0
501 502 694 0
502 690 694 0
688 695 690 0
695 694 690 0
695 688 691 0
503 686 696 0
697 504 696 0
504 503 696 0
694 693 501 0
698 693 694 0
699 698 694 0
695 699 694 0
505 504 697 0
491 340 700 0
701 702 703 0
703 702 704 0
702 705 706 0
704 702 706 0
236 506 707 0
236 707 509 0
509 707 708 0
708 510 509 0
709 510 708 0
705 702 516 0
518 706 705 0
518 705 516 0
510 709 512 0
709 710 512 0
516 711 517 0
516 702 711 0
712 518 519 0
712 519 713 0
519 520 713 0
520 714 713 0
520 715 714 0
710 522 512 0
716 522 710 0
717 702 718 0
711 702 717 0
517 711 539 0
520 524 715 0
715 524 719 0
524 527 719 0
527 720 719 0
719 720 716 0
240 522 720 0
716 720 522 0
240 720 363 0
362 721 529 0
361 721 362 0
721 722 529 0
723 530 722 0
530 529 722 0
723 531 530 0
724 725 531 0
725 532 531 0
700 515 532 0
725 700 532 0
539 711 540 0
527 366 720 0
363 720 366 0
528 533 726 0
726 534 528 0
534 361 241 0
534 727 361 0
728 361 727 0
728 721 361 0
729 730 717 0
717 730 711 0
711 730 540 0
537 726 533 0
537 731 726 0
731 534 726 0
731 727 534 0
730 729 732 0
732 540 730 0
732 538 540 0
731 537 733 0
538 732 734 0
543 538 734 0
733 537 735 0
537 548 735 0
549 547 736 0
377 549 736 0
378 377 550 0
377 736 550 0
552 379 550 0
555 737 738 0
555 554 737 0
554 739 737 0
738 557 555 0
738 740 557 0
553 552 741 0
739 554 553 0
741 739 553 0
560 556 742 0
561 560 743 0
560 742 743 0
744 745 746 0
746 745 747 0
744 748 745 0
749 750 747 0
749 747 751 0
752 383 562 0
562 753 752 0
563 754 562 0
562 754 753 0
563 755 756 0
563 756 754 0
757 756 755 0
571 757 755 0
748 757 571 0
745 748 571 0
747 745 571 0
751 747 758 0
758 747 571 0
759 749 751 0
758 759 751 0
566 760 565 0
752 760 566 0
383 752 566 0
563 567 755 0
571 755 567 0
568 571 567 0
569 571 568 0
574 571 570 0
574 758 571 0
759 758 761 0
761 758 574 0
761 574 573 0
759 761 762 0
763 394 764 0
385 764 393 0
764 394 393 0
763 765 394 0
576 396 766 0
576 767 575 0
766 767 576 0
575 767 573 0
761 573 768 0
769 762 761 0
768 769 761 0
394 765 579 0
168 770 577 0
771 770 168 0
577 770 578 0
573 767 772 0
773 573 772 0
773 768 573 0
765 582 579 0
774 580 775 0
580 771 168 0
580 774 771 0
770 771 776 0
578 776 581 0
770 776 578 0
396 400 766 0
767 766 777 0
777 772 767 0
583 778 584 0
779 780 585 0
779 585 778 0
778 585 584 0
586 585 780 0
775 586 780 0
580 586 775 0
771 774 599 0
776 771 599 0
269 776 599 0
581 269 401 0
581 776 269 0
401 269 587 0
269 591 587 0
587 591 588 0
766 590 781 0
400 590 766 0
777 766 781 0
782 778 583 0
588 591 593 0
593 591 594 0
593 594 595 0
595 596 589 0
594 596 595 0
596 781 590 0
783 597 582 0
784 597 783 0
596 594 785 0
785 594 786 0
781 596 787 0
787 596 785 0
777 781 787 0
787 788 777 0
784 602 597 0
789 790 791 0
792 789 791 0
600 790 789 0
594 603 793 0
594 793 794 0
794 786 594 0
795 787 785 0
796 787 795 0
797 602 784 0
605 798 799 0
429 798 605 0
799 598 605 0
789 792 800 0
789 800 606 0
600 789 606 0
801 607 797 0
607 602 797 0
802 617 609 0
610 802 609 0
800 802 610 0
606 800 610 0
794 793 803 0
803 804 794 0
801 612 607 0
617 802 293 0
603 435 793 0
805 804 803 0
617 293 620 0
793 435 437 0
793 437 806 0
803 793 806 0
807 803 806 0
805 803 807 0
618 808 611 0
618 809 808 0
808 622 611 0
810 623 622 0
811 615 623 0
811 623 812 0
812 623 810 0
438 813 814 0
439 438 814 0
815 808 809 0
622 808 815 0
816 622 815 0
810 622 816 0
442 441 813 0
441 817 813 0
813 438 442 0
294 818 819 0
443 818 294 0
444 294 820 0
294 819 820 0
817 441 444 0
820 817 444 0
624 445 292 0
625 821 297 0
443 297 818 0
297 821 818 0
447 822 823 0
446 447 823 0
300 445 447 0
447 445 822 0
446 823 448 0
823 824 448 0
450 825 627 0
824 450 448 0
825 450 824 0
625 449 630 0
826 629 628 0
826 628 827 0
826 633 629 0
632 625 630 0
635 633 826 0
828 635 826 0
829 632 638 0
830 635 828 0
831 830 828 0
635 832 636 0
635 830 832 0
832 637 636 0
637 833 638 0
829 638 833 0
834 637 832 0
835 836 837 0
836 835 641 0
641 835 838 0
839 837 836 0
839 836 641 0
838 840 639 0
641 838 639 0
841 839 842 0
842 839 641 0
840 843 844 0
840 844 845 0
639 845 642 0
840 845 639 0
846 842 641 0
462 844 843 0
847 462 843 0
845 844 462 0
642 845 462 0
643 848 641 0
848 846 641 0
848 645 849 0
643 645 848 0
846 848 849 0
462 850 644 0
645 851 849 0
851 846 849 0
851 852 846 0
645 646 851 0
646 852 851 0
852 646 853 0
850 854 644 0
646 647 649 0
649 853 646 0
855 856 857 0
652 858 859 0
858 860 859 0
859 860 861 0
649 648 660 0
650 857 862 0
857 856 862 0
652 857 650 0
858 652 651 0
651 863 858 0
863 860 858 0
864 861 860 0
863 864 860 0
862 856 865 0
862 865 650 0
651 654 863 0
863 866 864 0
863 654 866 0
654 657 866 0
657 867 866 0
867 327 868 0
644 869 658 0
854 869 644 0
657 661 867 0
327 867 661 0
663 869 870 0
658 869 663 0
871 872 873 0
865 856 874 0
650 865 666 0
327 668 875 0
875 668 876 0
668 670 876 0
870 670 663 0
876 670 870 0
872 877 873 0
877 878 873 0
672 879 665 0
879 672 482 0
880 874 856 0
878 676 675 0
679 676 878 0
877 679 878 0
681 679 877 0
881 877 872 0
482 487 879 0
865 874 882 0
666 865 673 0
681 877 883 0
883 877 881 0
883 881 884 0
885 874 880 0
673 865 677 0
865 882 677 0
883 886 682 0
681 883 682 0
887 883 884 0
887 886 883 0
335 888 488 0
490 888 335 0
882 889 677 0
333 677 683 0
678 494 674 0
688 682 886 0
688 886 890 0
890 886 887 0
890 887 891 0
683 677 892 0
688 891 893 0
688 890 891 0
683 894 686 0
683 892 894 0
892 895 894 0
493 896 685 0
688 893 692 0
894 895 897 0
898 894 897 0
686 894 898 0
899 896 493 0
899 493 900 0
900 493 689 0
901 691 692 0
686 898 902 0
686 902 903 0
689 904 900 0
693 904 689 0
905 691 901 0
686 903 906 0
696 686 906 0
906 697 696 0
907 908 904 0
907 904 698 0
698 904 693 0
907 698 699 0
695 691 699 0
909 699 691 0
905 910 691 0
910 909 691 0
911 905 912 0
910 905 911 0
913 697 906 0
914 908 907 0
915 908 914 0
699 914 907 0
697 913 916 0
697 916 505 0
915 914 917 0
914 699 917 0
918 917 699 0
918 699 909 0
919 920 916 0
505 916 921 0
916 920 921 0
922 923 701 0
921 924 505 0
924 506 505 0
701 925 702 0
701 923 925 0
704 706 926 0
706 927 926 0
928 712 929 0
707 924 929 0
707 506 924 0
707 930 708 0
929 930 707 0
708 930 709 0
340 508 700 0
925 931 702 0
706 518 927 0
712 927 518 0
932 929 712 0
930 929 933 0
933 929 932 0
709 933 710 0
930 933 709 0
508 515 700 0
931 718 702 0
712 713 932 0
714 932 713 0
933 932 714 0
715 933 714 0
710 933 715 0
710 715 716 0
716 715 719 0
722 721 934 0
722 934 723 0
935 700 725 0
724 935 725 0
718 936 717 0
934 937 723 0
723 938 531 0
531 938 939 0
531 939 724 0
717 936 940 0
717 940 729 0
727 941 728 0
942 941 727 0
728 934 721 0
728 941 934 0
941 943 934 0
943 937 934 0
944 723 937 0
938 723 944 0
732 729 945 0
731 733 946 0
731 942 727 0
731 946 942 0
946 947 942 0
948 941 947 0
947 941 942 0
732 945 734 0
544 543 949 0
949 545 544 0
950 545 949 0
946 735 951 0
733 735 946 0
947 946 952 0
952 946 951 0
953 948 947 0
952 953 947 0
545 950 547 0
950 954 547 0
951 735 955 0
952 951 955 0
956 952 955 0
953 952 956 0
547 954 736 0
550 736 957 0
957 958 550 0
738 959 960 0
737 959 738 0
960 740 738 0
961 740 960 0
552 550 958 0
741 959 739 0
739 959 737 0
740 961 557 0
741 552 958 0
557 962 556 0
742 962 963 0
742 556 962 0
964 963 962 0
965 966 743 0
966 561 743 0
966 548 561 0
743 742 963 0
967 746 747 0
967 747 750 0
968 756 757 0
969 968 757 0
970 969 757 0
748 970 757 0
744 970 748 0
750 749 971 0
760 752 972 0
752 753 973 0
972 974 565 0
974 564 565 0
760 972 565 0
385 572 975 0
976 759 762 0
764 977 763 0
975 764 385 0
977 764 975 0
978 765 763 0
768 979 769 0
769 979 762 0
980 582 765 0
780 779 981 0
780 982 775 0
981 982 780 0
775 982 774 0
772 777 983 0
772 984 773 0
983 984 772 0
773 985 768 0
979 768 985 0
582 980 986 0
582 986 987 0
988 989 778 0
989 990 778 0
779 778 990 0
779 990 991 0
779 991 981 0
982 981 992 0
992 981 991 0
774 992 599 0
982 992 774 0
777 788 983 0
788 984 983 0
784 987 993 0
784 783 987 0
783 582 987 0
994 995 583 0
988 782 995 0
995 782 583 0
778 782 988 0
991 996 997 0
991 997 998 0
599 998 600 0
599 992 998 0
992 991 998 0
994 598 999 0
583 598 994 0
790 997 996 0
790 996 791 0
791 996 1000 0
600 997 790 0
998 997 600 0
784 993 1001 0
999 799 1002 0
999 598 799 0
1003 792 1000 0
792 791 1000 0
786 794 1004 0
786 1004 785 0
1004 1005 785 0
1005 795 785 0
1006 796 795 0
787 796 1007 0
1007 796 1006 0
1001 797 784 0
1008 797 1001 0
799 798 1002 0
1009 800 1003 0
1009 1010 800 0
1010 802 800 0
792 1003 800 0
1011 1012 1005 0
1011 1005 1013 0
1013 1005 1004 0
795 1005 1012 0
1014 795 1012 0
1006 795 1014 0
1008 801 797 0
1015 801 1008 0
616 1016 428 0
1017 802 1010 0
1004 804 1018 0
794 804 1004 0
1013 1004 1019 0
1019 1004 1018 0
1020 1011 1013 0
1019 1020 1013 0
1021 612 1015 0
612 801 1015 0
1016 616 615 0
1017 293 802 0
1018 1022 1023 0
1018 804 1022 0
804 805 1022 0
1019 1018 1023 0
1024 1019 1023 0
1020 1019 1024 0
1015 1025 1026 0
1015 1026 1021 0
612 1021 618 0
437 621 1027 0
621 1028 1027 0
806 437 1027 0
807 806 1027 0
1022 805 807 0
1027 1022 807 0
1021 1026 1029 0
618 1029 809 0
1021 1029 618 0
439 814 1030 0
1028 621 439 0
1030 1028 439 0
1031 1026 1025 0
809 1029 1032 0
809 1033 815 0
1032 1033 809 0
1034 815 1033 0
815 1034 816 0
817 1035 813 0
1036 1026 1031 0
1029 1026 1036 0
1032 1029 1037 0
1037 1029 1036 0
1038 1033 1037 0
1037 1033 1032 0
1034 1033 1038 0
1039 819 818 0
820 819 1039 0
1035 820 1039 0
817 820 1035 0
1036 1031 1040 0
1037 1036 1040 0
1038 1037 1040 0
624 440 445 0
440 1041 445 0
1042 823 822 0
1042 822 445 0
1041 1042 445 0
1042 824 823 0
627 1043 1044 0
627 825 1043 0
1044 628 627 0
1045 828 1046 0
828 826 1046 0
625 632 829 0
1046 1047 1048 0
1046 1048 1045 0
1045 1048 831 0
1045 831 828 0
1049 829 833 0
1050 1048 1047 0
1051 1050 1047 0
831 1048 1050 0
831 834 830 0
830 834 832 0
834 1052 637 0
637 1052 1053 0
637 1053 833 0
1050 1054 1055 0
1050 1055 831 0
834 831 1055 0
1056 834 1055 0
1052 834 1056 0
1053 1052 1056 0
1056 1055 1054 0
1057 1056 1054 0
1058 1056 1057 0
1053 1056 1058 0
1059 1060 1061 0
1060 1059 1062 0
1059 1063 1062 0
837 1060 1062 0
1061 1060 1064 0
835 1062 1065 0
1062 1063 1065 0
837 1062 835 0
1066 1060 837 0
1064 1060 1067 0
1067 1060 1066 0
1065 1063 1068 0
835 1068 838 0
1065 1068 835 0
837 839 1066 0
841 1066 839 0
1067 1066 841 0
838 1068 840 0
1069 1070 841 0
842 1069 841 0
843 1063 1071 0
1068 1063 843 0
840 1068 843 0
846 1072 1069 0
846 1069 842 0
847 843 1071 0
846 1073 1072 0
846 852 1073 0
462 847 850 0
1074 1075 1076 0
1076 1075 1077 0
1077 1075 855 0
1078 1077 855 0
847 1079 850 0
1080 1075 1081 0
855 1080 856 0
855 1075 1080 0
652 855 857 0
1078 855 652 0
859 1082 652 0
1082 859 861 0
1083 1082 861 0
1079 1084 850 0
1085 1086 1087 0
866 1083 864 0
1083 861 864 0
1088 1084 1089 0
1088 854 1084 0
854 850 1084 0
1086 1090 1091 0
1085 1092 1086 0
1092 1090 1086 0
868 1089 867 0
867 1089 866 0
327 1093 1089 0
327 1089 868 0
1089 1093 1088 0
854 1088 869 0
873 1094 1090 0
1090 1094 1091 0
871 873 1090 0
1092 871 1090 0
871 1092 1095 0
1095 1092 1085 0
327 875 1093 0
875 1088 1093 0
869 875 870 0
1088 875 869 0
1095 1096 872 0
871 1095 872 0
1085 1096 1095 0
1097 1085 1098 0
870 875 876 0
1094 1099 1100 0
873 878 1099 0
1094 873 1099 0
872 1096 1101 0
1101 1096 1085 0
1101 1085 1097 0
1080 880 856 0
675 1102 1100 0
674 1102 675 0
878 675 1099 0
1099 675 1100 0
872 1101 881 0
1101 1103 881 0
879 487 488 0
884 881 1103 0
880 1104 885 0
887 884 1105 0
1106 874 885 0
1106 885 1107 0
1107 885 1104 0
874 1106 882 0
1106 1108 882 0
882 1108 889 0
887 1105 891 0
1109 1105 1110 0
1109 891 1105 0
490 491 1111 0
889 1108 1112 0
1108 1106 1112 0
889 1113 677 0
1112 1113 889 0
677 1113 892 0
494 685 674 0
893 891 1109 0
893 1109 1114 0
1111 491 1115 0
1116 1117 1118 0
1106 1118 1119 0
1119 1118 1117 0
1112 1106 1119 0
1113 1112 1119 0
892 1119 895 0
1113 1119 892 0
893 1120 692 0
1114 1121 893 0
1121 1120 893 0
1114 1122 1121 0
1115 491 1123 0
895 1119 1124 0
895 1124 897 0
897 1124 1125 0
898 897 1125 0
692 1120 901 0
905 901 1120 0
1121 905 1120 0
905 1122 912 0
905 1121 1122 0
1122 1126 912 0
1126 1127 912 0
1115 1123 1127 0
902 1128 1129 0
902 1125 1128 0
902 898 1125 0
902 1130 903 0
1129 1130 902 0
904 899 900 0
1129 1131 1130 0
903 1132 906 0
903 1130 1132 0
1130 1131 1132 0
904 1133 899 0
904 908 1133 0
1134 911 912 0
1127 1134 912 0
1123 1135 1127 0
1135 1134 1127 0
1123 491 1135 0
1132 1131 1136 0
1136 1131 1137 0
906 1136 913 0
1132 1136 906 0
1133 908 915 0
909 910 1138 0
1139 909 1138 0
910 911 1138 0
1134 1138 911 0
913 1140 916 0
913 1136 1140 0
1141 1133 915 0
1138 1134 1139 0
491 700 1135 0
1142 1143 1144 0
1144 1143 703 0
1137 1142 1144 0
1140 1136 919 0
1140 919 916 0
1145 1146 1141 0
917 1145 1141 0
917 1141 915 0
917 918 1147 0
1145 917 1147 0
918 909 1139 0
918 1139 1147 0
922 1148 923 0
922 1149 1148 0
703 922 701 0
1144 703 704 0
704 1150 1144 0
1150 1137 1144 0
1136 1137 1150 0
919 1136 1150 0
919 928 920 0
919 1150 928 0
920 1151 921 0
928 1151 920 0
921 1151 924 0
1146 1145 1152 0
1145 1147 1152 0
1139 1152 1147 0
1134 1152 1139 0
923 931 925 0
1148 931 923 0
704 926 1150 0
927 1150 926 0
712 1150 927 0
928 1150 712 0
1151 928 929 0
924 1151 929 0
1153 1154 1152 0
1134 1153 1152 0
1155 1135 700 0
700 935 1155 0
935 1156 1155 0
1157 718 931 0
1156 935 724 0
1158 1156 724 0
718 1157 1159 0
1159 936 718 0
724 939 1158 0
1158 939 1160 0
936 1159 1161 0
940 936 1161 0
729 940 1162 0
940 1161 1162 0
1162 945 729 0
937 1163 944 0
1164 1163 937 0
1165 944 1163 0
1165 1166 944 0
944 1166 938 0
1160 939 938 0
945 1162 1167 0
945 1167 1168 0
941 1169 943 0
943 1164 937 0
943 1169 1164 0
1169 1170 1164 0
1165 1163 1170 0
1170 1163 1164 0
945 1168 1171 0
945 1171 734 0
734 1171 543 0
949 543 1171 0
950 1172 1173 0
950 949 1172 0
949 1171 1172 0
1172 1174 1173 0
941 948 1175 0
948 953 1175 0
1176 1169 941 0
1170 1169 1176 0
1177 1170 1176 0
1165 1170 1177 0
1173 1178 954 0
950 1173 954 0
1179 1178 1173 0
1174 1179 1173 0
1180 1181 1174 0
1181 1179 1174 0
1180 1182 1181 0
1183 956 955 0
1175 953 956 0
1183 1175 956 0
954 1178 736 0
957 736 1178 0
1179 957 1178 0
958 957 1179 0
958 1179 1181 0
1184 958 1181 0
960 959 1184 0
960 1184 1182 0
1182 1184 1181 0
1182 961 960 0
1182 1185 961 0
955 1186 1187 0
955 735 1186 0
1184 741 958 0
959 741 1184 0
961 1188 557 0
735 548 1186 0
962 557 1188 0
1188 1189 964 0
962 1188 964 0
964 1190 963 0
963 1190 743 0
1190 1191 743 0
743 1191 1192 0
743 1192 965 0
1193 964 1189 0
1194 1193 1189 0
1190 964 1193 0
1195 1190 1193 0
1191 1190 1195 0
1196 1192 1191 0
1195 1196 1191 0
1193 1194 1197 0
1195 1193 1197 0
1198 1195 1197 0
1196 1195 1198 0
1199 746 967 0
970 744 1200 0
1200 744 746 0
967 750 1201 0
1202 968 1203 0
1203 968 969 0
970 1204 969 0
750 971 1201 0
1205 753 754 0
756 1205 754 0
1202 1205 756 0
968 1202 756 0
1206 971 749 0
752 1207 1208 0
1209 1207 973 0
1207 752 973 0
753 1209 973 0
1210 1209 753 0
749 759 1206 0
1206 759 1211 0
1212 564 974 0
976 1211 759 0
1213 975 1214 0
1212 1214 572 0
1214 975 572 0
564 1212 572 0
1215 976 762 0
978 763 1216 0
1213 1216 977 0
1216 763 977 0
975 1213 977 0
762 979 1215 0
989 988 1217 0
989 1218 990 0
1217 1218 989 0
990 1218 991 0
984 788 985 0
773 984 985 0
1219 993 987 0
1220 1221 994 0
1221 995 994 0
988 995 1221 0
988 1221 1222 0
988 1222 1217 0
996 1218 1222 0
1218 1217 1222 0
991 1218 996 0
788 787 985 0
1220 994 999 0
1220 999 1223 0
1223 999 1224 0
996 1003 1000 0
1222 1003 996 0
1225 1001 1219 0
1001 993 1219 0
1224 999 1002 0
1009 1003 1226 0
1001 1225 1008 0
1226 1010 1009 0
1227 1010 1226 0
1228 1015 1008 0
1227 1017 1010 0
1022 1229 1023 0
1023 1229 1024 0
1228 1025 1015 0
615 811 1230 0
1231 293 1017 0
1232 1233 1234 0
1232 1235 1236 0
1234 1235 1232 0
1235 1237 1236 0
1028 1238 1027 0
1229 1022 1027 0
812 810 1239 0
1230 811 812 0
1239 1230 812 0
1240 293 1231 0
1241 1233 1232 0
1242 1233 1241 0
1243 1241 1232 0
814 1243 1236 0
1236 1243 1232 0
1237 814 1236 0
1030 814 1237 0
1238 1030 1237 0
1028 1030 1238 0
1240 440 293 0
1244 1245 1039 0
1242 1241 1035 0
1242 1035 1245 0
1245 1035 1039 0
1243 1035 1241 0
813 1035 1243 0
814 813 1243 0
1246 1034 1038 0
440 1247 1248 0
1247 440 1240 0
1249 1250 1251 0
1249 1252 1253 0
1251 1252 1249 0
1244 1253 1252 0
1244 821 1253 0
1244 818 821 0
1039 818 1244 0
1031 1254 1255 0
1040 1031 1255 0
1040 1255 1256 0
1038 1040 1256 0
1256 1246 1038 0
440 1248 1257 0
1258 1250 1249 0
1259 1250 1258 0
821 1258 1253 0
1253 1258 1249 0
1257 1041 440 0
1258 625 1259 0
821 625 1258 0
1042 1041 1260 0
1259 625 1261 0
1260 824 1042 0
1260 825 824 0
827 1262 1263 0
826 827 1263 0
628 1044 827 0
827 1044 1262 0
826 1263 1046 0
829 1264 625 0
1265 1047 1046 0
1264 829 1049 0
1047 1266 1051 0
1266 1267 1051 0
1268 1050 1051 0
1268 1051 1269 0
1269 1051 1267 0
1050 1268 1054 0
1270 1268 1269 0
1268 1270 1054 0
1271 1057 1054 0
1272 1273 1057 0
1273 1058 1057 0
1273 1053 1058 0
1270 1274 1054 0
1271 1054 1275 0
1275 1054 1274 0
1276 1271 1275 0
1277 1278 1274 0
1275 1274 1279 0
1279 1274 1278 0
1280 1281 1059 0
1061 1280 1059 0
1282 1061 1283 0
1284 1285 1286 0
1284 1286 1287 0
1063 1281 1287 0
1281 1284 1287 0
1059 1281 1063 0
1288 1283 1061 0
1287 1286 1285 0
1064 1289 1061 0
1289 1288 1061 0
1287 1290 1063 0
1289 1067 1291 0
1064 1067 1289 0
1288 1289 1291 0
1063 1290 1071 0
1067 841 1291 0
1070 1291 841 0
1070 1288 1291 0
1070 1292 1288 0
1293 1070 1069 0
1072 1293 1069 0
1294 1295 1074 0
1296 1297 1298 0
1074 1299 1075 0
1074 1295 1299 0
1300 1076 1077 0
1077 1301 1300 0
1071 1290 847 0
1296 1302 1297 0
1302 1303 1297 0
852 853 1304 0
1299 1081 1075 0
1077 1078 1301 0
1078 1305 1301 0
1306 847 1290 0
847 1306 1079 0
1297 1307 1308 0
1087 1307 1303 0
1303 1307 1297 0
1085 1087 1303 0
1304 853 649 0
1078 652 1305 0
1305 652 1309 0
652 1082 1309 0
1083 1310 1082 0
1082 1310 1309 0
1306 1084 1079 0
1307 1311 1308 0
1087 1086 1311 0
1307 1087 1311 0
1085 1303 1312 0
1312 1303 1302 0
1313 1312 1302 0
1083 866 1310 0
866 1314 1310 0
1084 1315 1089 0
1316 1317 1308 0
1318 1317 1316 0
1086 1091 1316 0
1086 1316 1311 0
1311 1316 1308 0
1312 1313 1319 0
1315 866 1089 0
1091 1094 1318 0
1316 1091 1318 0
1312 1098 1085 0
1312 1319 1098 0
1319 1320 1098 0
880 1080 1081 0
1100 1102 1318 0
1094 1100 1318 0
1320 1097 1098 0
660 665 1321 0
1322 1097 1323 0
1101 1097 1322 0
1321 665 879 0
1324 880 1081 0
1102 674 1318 0
1101 1322 1103 0
1322 1325 1103 0
1325 884 1103 0
1105 884 1110 0
1104 1326 1107 0
1109 1110 1327 0
490 1111 888 0
1107 1328 1106 0
1107 1326 1328 0
1326 1329 1328 0
1106 1328 1118 0
674 685 1330 0
1109 1327 1114 0
1111 1115 888 0
888 1115 1331 0
1329 1116 1328 0
1328 1116 1118 0
896 1330 685 0
1332 1330 896 0
1122 1114 1327 0
1126 1122 1327 0
1127 1331 1115 0
1116 1333 1117 0
1116 1334 1333 0
1117 1333 1119 0
1333 1335 1119 0
1119 1335 1124 0
1124 1336 1125 0
1335 1336 1124 0
896 899 1332 0
1332 899 1337 0
1333 1334 1338 0
1336 1335 1128 0
1128 1335 1339 0
1125 1336 1128 0
1340 1341 1342 0
1339 1342 1128 0
1128 1343 1129 0
1129 1343 1131 0
1133 1337 899 0
1344 1337 1133 0
1128 1342 1345 0
1343 1128 1346 0
1346 1128 1345 0
1131 1346 1137 0
1343 1346 1131 0
1347 1341 1348 0
1342 1341 1349 0
1345 1342 1349 0
1350 1345 1349 0
1143 1345 1350 0
1142 1345 1143 0
1346 1345 1142 0
1137 1346 1142 0
1133 1141 1351 0
1352 1341 1347 0
1353 1341 1352 0
1149 1349 1353 0
1349 1341 1353 0
922 1349 1149 0
703 1349 922 0
1350 1349 703 0
1143 1350 703 0
1351 1141 1146 0
1354 1351 1146 0
1149 1353 1148 0
1355 1354 1146 0
1146 1152 1355 0
1356 1352 1347 0
1148 1353 931 0
1152 1357 1355 0
1357 1152 1154 0
1153 1358 1154 0
1154 1358 1359 0
1360 1358 1153 0
1153 1134 1361 0
1360 1153 1361 0
1134 1135 1361 0
1356 1362 1352 0
1352 1362 1353 0
1353 1362 931 0
1363 1357 1154 0
1358 1360 1364 0
1360 1361 1364 0
1135 1155 1364 0
1361 1135 1364 0
1362 1356 1365 0
1365 931 1362 0
1366 1364 1156 0
1364 1155 1156 0
931 1365 1157 0
1158 1366 1156 0
1159 1157 1367 0
1158 1160 1366 0
1159 1367 1161 0
1162 1161 1368 0
1369 1370 1371 0
1166 1372 1373 0
1165 1372 1166 0
938 1166 1374 0
1166 1373 1374 0
1374 1160 938 0
1162 1368 1167 0
1168 1167 1368 0
1371 1168 1368 0
1168 1371 1375 0
1370 1376 1371 0
1376 1375 1371 0
1165 1377 1372 0
1168 1375 1171 0
1172 1171 1375 0
1174 1172 1375 0
1376 1174 1375 0
1174 1376 1180 0
1378 1379 1176 0
1379 1177 1176 0
1377 1165 1177 0
1377 1177 1380 0
1380 1177 1379 0
1182 1180 1381 0
1382 1182 1381 0
1382 1185 1182 0
1382 1383 1185 0
1183 955 1384 0
1175 1183 1384 0
1175 1384 941 0
1176 941 1384 0
1185 1188 961 0
1187 1385 1386 0
1186 1385 1187 0
1384 955 1187 0
1384 1187 1387 0
1387 1187 1386 0
1188 1388 1189 0
1186 548 1385 0
1189 1388 1389 0
1189 1389 1194 0
1389 1390 1194 0
1194 1390 1391 0
1197 1194 1391 0
1392 746 1199 0
967 1393 1199 0
1199 1393 1392 0
1393 967 1201 0
1394 1393 1201 0
1395 1396 1203 0
1395 1203 969 0
1204 1395 969 0
1392 970 1200 0
746 1392 1200 0
1397 1205 1202 0
1203 1397 1202 0
1396 1397 1203 0
1201 971 1394 0
1398 1209 1210 0
753 1399 1210 0
1400 1399 753 0
1205 1400 753 0
971 1206 1401 0
972 752 1402 0
1207 1403 1208 0
1398 1403 1207 0
1209 1398 1207 0
1404 1401 1405 0
1206 1211 1405 0
1401 1206 1405 0
974 1406 1212 0
1212 1406 1407 0
1402 974 972 0
1406 974 1402 0
1408 1404 1405 0
1211 1409 1405 0
1405 1409 1408 0
1211 976 1409 0
1214 1410 1213 0
1407 1214 1212 0
1410 1214 1407 0
1409 1411 1408 0
1412 1411 1409 0
976 1412 1409 0
976 1413 1412 0
1413 976 1215 0
1213 978 1216 0
1215 979 1414 0
979 985 1414 0
1221 1220 1415 0
1221 1415 1222 0
1223 1224 1416 0
1220 1223 1416 0
1220 1416 1417 0
1220 1417 1415 0
1418 1417 1416 0
1222 1417 1003 0
1415 1417 1222 0
787 1419 985 0
1420 1224 1002 0
1421 1417 1418 0
1003 1421 1226 0
1417 1421 1003 0
1006 1422 1007 0
1419 787 1007 0
1225 1423 1008 0
1002 798 1420 0
1227 1421 1424 0
1226 1421 1227 0
1012 1425 1426 0
1011 1425 1012 0
1014 1012 1427 0
1012 1426 1427 0
1422 1006 1014 0
1427 1422 1014 0
1424 1017 1227 0
1428 1429 1430 0
1011 1020 1425 0
1425 1020 1431 0
615 1432 1016 0
1433 1434 1237 0
1428 1237 1434 0
1428 1430 1237 0
1429 1237 1430 0
1435 1237 1429 0
1024 1229 1436 0
1229 1437 1436 0
1431 1020 1024 0
1436 1431 1024 0
1239 1432 1230 0
1230 1432 615 0
1433 1235 1438 0
1438 1235 1234 0
1237 1235 1433 0
1027 1238 1237 0
1435 1027 1237 0
1437 1027 1435 0
1229 1027 1437 0
1228 1439 1025 0
1432 1239 1440 0
1440 1239 810 0
1441 1240 1231 0
1234 1233 1442 0
1233 1242 1442 0
1025 1439 1031 0
1034 1443 1444 0
1246 1443 1034 0
1034 1444 816 0
1440 810 816 0
1240 1441 1445 0
1245 1244 1446 0
1244 1447 1446 0
1442 1242 1245 0
1446 1442 1245 0
1031 1439 1254 0
1246 1448 1443 0
1247 1449 1450 0
1248 1247 1450 0
1240 1451 1247 0
1451 1449 1247 0
1445 1451 1240 0
1452 1252 1251 0
1447 1244 1252 0
1452 1447 1252 0
1256 1255 1453 0
1448 1246 1256 0
1448 1256 1454 0
1454 1256 1453 0
1248 1455 1257 0
1248 1450 1455 0
1251 1456 1452 0
1251 1250 1456 0
1250 1259 1456 0
1457 1458 1257 0
1455 1457 1257 0
1459 1260 1460 0
1460 1260 1041 0
1458 1041 1257 0
1460 1041 1458 0
1456 1259 1261 0
1461 1456 1261 0
1260 1459 1462 0
1261 625 1461 0
1461 625 1463 0
1043 1464 1044 0
1464 1043 825 0
1260 1465 825 0
1260 1462 1465 0
1263 1262 1466 0
1466 1262 1044 0
1464 1466 1044 0
625 1264 1463 0
1263 1467 1046 0
1467 1265 1046 0
1047 1265 1468 0
1047 1468 1266 0
1469 1267 1266 0
833 1053 1049 0
1049 1053 1470 0
1469 1269 1267 0
1470 1053 1273 0
1471 1269 1469 0
1472 1471 1469 0
1269 1471 1270 0
1272 1473 1273 0
1473 1470 1273 0
1270 1471 1474 0
1270 1474 1274 0
1271 1475 1057 0
1476 1475 1271 0
1057 1475 1477 0
1057 1477 1272 0
1272 1477 1473 0
1478 1471 1472 0
1474 1471 1277 0
1277 1471 1478 0
1474 1277 1274 0
1275 1479 1276 0
1480 1479 1275 0
1276 1476 1271 0
1276 1479 1476 0
1479 1481 1476 0
1482 1475 1481 0
1481 1475 1476 0
1477 1475 1482 0
1277 1483 1278 0
1483 1484 1278 0
1278 1484 1279 0
1279 1480 1275 0
1279 1484 1480 0
1484 1485 1480 0
1479 1480 1481 0
1481 1480 1485 0
1478 1486 1277 0
1483 1277 1486 0
1484 1483 1487 0
1487 1485 1484 0
1483 1486 1488 0
1487 1483 1488 0
1487 1488 1489 0
1490 1491 1492 0
1493 1491 1490 0
1494 1493 1495 0
1495 1496 1494 0
1490 1497 1280 0
1493 1490 1280 0
1493 1280 1498 0
1495 1493 1498 0
1495 1498 1499 0
1280 1497 1500 0
1498 1280 1061 0
1282 1498 1061 0
1282 1501 1499 0
1282 1499 1498 0
1497 1502 1285 0
1497 1285 1284 0
1281 1497 1284 0
1500 1497 1281 0
1280 1500 1281 0
1501 1283 1503 0
1282 1283 1501 0
1288 1503 1283 0
1504 1501 1503 0
1285 1505 1506 0
1285 1506 1287 0
1288 1507 1503 0
1507 1504 1503 0
1290 1506 1508 0
1506 1505 1508 0
1287 1506 1290 0
1288 1292 1507 0
1508 1509 1510 0
1292 1070 1511 0
1512 1292 1511 0
1508 1510 1315 0
1508 1315 1290 0
1293 1511 1070 0
1293 1513 1511 0
1513 1512 1511 0
1514 1515 1516 0
1293 1072 1513 0
1072 1517 1513 0
1518 1519 1520 0
1072 1073 1517 0
1515 1514 1294 0
1521 1515 1294 0
1522 1510 1509 0
1518 1520 1523 0
1520 1524 1523 0
1298 1524 1519 0
1519 1524 1520 0
1298 1519 1525 0
1525 1526 1527 0
1528 1514 1529 0
1530 1528 1529 0
1294 1528 1295 0
1294 1514 1528 0
1076 1294 1074 0
1521 1294 1076 0
1521 1076 1531 0
1076 1300 1531 0
1531 1300 1301 0
1315 1510 1522 0
1524 1532 1523 0
1298 1297 1532 0
1524 1298 1532 0
1296 1298 1525 0
1296 1525 1533 0
1533 1525 1527 0
852 1534 1073 0
1299 1528 1530 0
1528 1299 1295 0
1301 1535 1531 0
1301 1305 1535 0
1536 1523 1537 0
1297 1537 1532 0
1532 1537 1523 0
1296 1533 1302 0
852 1304 1534 0
1299 1530 1081 0
1290 1315 1306 0
1308 1536 1537 0
1308 1317 1536 0
1297 1308 1537 0
1304 649 1534 0
1534 649 660 0
1530 1538 1081 0
1305 1309 1539 0
1310 1539 1309 0
1540 1539 1310 0
1314 1540 1310 0
1314 1522 1540 0
1315 1522 1314 0
1306 1315 1084 0
1302 1541 1313 0
1315 1314 866 0
1317 1318 1536 0
1319 1313 1541 0
660 1321 1534 0
1534 1321 1542 0
1543 1319 1541 0
1320 1319 1543 0
1320 1323 1097 0
1320 1543 1323 0
1543 1544 1323 0
1544 1322 1323 0
1545 1542 1321 0
1321 879 1545 0
1081 1538 1324 0
1538 1546 1324 0
1325 1322 1547 0
1545 879 1548 0
1549 880 1324 0
1549 1324 1546 0
880 1549 1104 0
1318 674 1550 0
884 1547 1110 0
884 1325 1547 0
1110 1547 1551 0
1548 1552 1551 0
879 488 1552 0
1548 879 1552 0
1549 1326 1104 0
1553 1110 1551 0
488 888 1554 0
488 1554 1552 0
1555 1326 1549 0
674 1330 1550 0
1550 1330 1556 0
1327 1110 1553 0
1552 1553 1551 0
1326 1555 1329 0
1557 1556 1330 0
1126 1327 1553 0
1126 1553 1558 0
1552 1559 1553 0
1559 1558 1553 0
1554 1559 1552 0
888 1331 1559 0
1554 888 1559 0
1329 1555 1560 0
1329 1560 1116 0
1557 1330 1332 0
1557 1332 1561 0
1561 1332 1562 0
1559 1126 1558 0
1127 1126 1559 0
1331 1127 1559 0
1563 1555 1549 0
1564 1563 1549 0
1560 1555 1565 0
1565 1555 1563 0
1116 1565 1334 0
1560 1565 1116 0
1562 1332 1337 0
1563 1564 1566 0
1565 1563 1566 0
1567 1565 1566 0
1338 1565 1567 0
1338 1334 1565 0
1338 1340 1333 0
1340 1568 1333 0
1333 1568 1335 0
1335 1568 1339 0
1337 1569 1562 0
1570 1571 1338 0
1340 1571 1341 0
1340 1338 1571 0
1568 1340 1342 0
1339 1568 1342 0
1569 1337 1344 0
1569 1344 1572 0
1572 1344 1573 0
1348 1571 1570 0
1571 1348 1341 0
1573 1344 1133 0
1574 1573 1133 0
1574 1133 1351 0
1575 1347 1348 0
1574 1351 1354 0
1347 1575 1356 0
1359 1576 1154 0
1359 1358 1577 0
1576 1359 1577 0
1355 1578 1579 0
1357 1578 1355 0
1580 1578 1363 0
1363 1578 1357 0
1363 1154 1576 0
1363 1576 1580 0
1577 1581 1576 0
1581 1580 1576 0
1358 1582 1577 0
1358 1364 1582 0
1365 1356 1583 0
1581 1584 1580 0
1364 1366 1582 0
1365 1585 1157 0
1584 1586 1587 0
1584 1581 1586 0
1581 1577 1586 0
1582 1586 1577 0
1157 1585 1588 0
1367 1157 1588 0
1367 1588 1589 0
1369 1590 1591 0
1592 1590 1369 0
1593 1587 1586 0
1594 1587 1593 0
1582 1595 1586 0
1595 1593 1586 0
1366 1160 1595 0
1582 1366 1595 0
1367 1589 1161 0
1596 1161 1589 0
1368 1161 1596 0
1371 1368 1596 0
1376 1370 1369 0
1373 1594 1593 0
1373 1372 1594 0
1374 1373 1593 0
1595 1374 1593 0
1160 1374 1595 0
1180 1376 1369 0
1180 1369 1591 0
1597 1180 1591 0
1372 1377 1594 0
1597 1381 1180 0
1597 1598 1381 0
1381 1598 1382 0
1598 1383 1382 0
1599 1383 1598 0
1383 1599 1185 0
1384 1600 1176 0
1176 1600 1601 0
1176 1601 1378 0
1185 1602 1188 0
1384 1387 1603 0
1600 1384 1603 0
1386 1604 1605 0
1386 1385 1604 0
1387 1386 1605 0
1606 1387 1605 0
1603 1387 1606 0
1602 1388 1188 0
1607 1388 1602 0
1385 548 1604 0
1608 1389 1607 0
1389 1388 1607 0
966 965 1609 0
1609 548 966 0
1389 1610 1390 0
1608 1610 1389 0
1390 1610 1611 0
1390 1611 1391 0
1204 1612 1613 0
1396 1395 1204 0
1392 1204 970 0
1612 1204 1392 0
1393 1612 1392 0
1612 1393 1394 0
1612 1394 1614 0
1396 1615 1397 0
1614 1394 971 0
1398 1616 1403 0
1403 1616 1617 0
1399 1616 1210 0
1616 1398 1210 0
971 1401 1618 0
1402 752 1619 0
1403 1617 1208 0
1404 1620 1618 0
1404 1618 1401 0
1621 1407 1622 0
1619 1622 1406 0
1622 1407 1406 0
1402 1619 1406 0
1404 1408 1623 0
1621 1624 1410 0
1624 1213 1410 0
1407 1621 1410 0
1625 1626 1627 0
1626 1628 1627 0
1628 1629 1627 0
1408 1411 1623 0
1623 1411 1629 0
1411 1412 1630 0
1412 1413 1630 0
1413 1215 1630 0
1627 1631 1625 0
1632 1631 1627 0
1632 1627 1633 0
1629 1633 1627 0
1411 1633 1629 0
1630 1634 1411 0
1634 1633 1411 0
1630 1215 1634 0
1633 1635 1632 0
1636 1635 1633 0
1634 1636 1633 0
1634 1215 1414 0
1634 1414 1636 0
1636 1414 1637 0
986 980 1638 0
765 1639 980 0
1639 765 978 0
986 1638 987 0
1419 1637 1414 0
985 1419 1414 0
1640 1416 1224 0
1640 1418 1416 0
1641 1418 1640 0
1423 1225 1219 0
1224 1420 1642 0
1640 1224 1642 0
1418 1641 1421 0
1641 1643 1421 0
1644 1645 1646 0
1645 1647 1646 0
1646 1647 1648 0
1423 1649 1008 0
1420 798 1650 0
1642 1420 1650 0
1651 1424 1643 0
1424 1421 1643 0
1644 1428 1652 0
1644 1646 1428 0
1646 1653 1428 0
1648 1654 1646 0
1426 1425 1654 0
1426 1654 1648 0
1427 1426 1648 0
1655 1427 1648 0
1422 1427 1655 0
1649 1228 1008 0
428 1016 1656 0
429 428 1657 0
428 1656 1657 0
1650 798 429 0
1657 1650 429 0
1017 1651 1658 0
1017 1658 1659 0
1424 1651 1017 0
1428 1434 1652 0
1653 1429 1428 0
1435 1429 1653 0
1435 1653 1660 0
1660 1653 1646 0
1654 1660 1646 0
1661 1660 1654 0
1425 1431 1661 0
1654 1425 1661 0
1662 1017 1659 0
1652 1434 1663 0
1663 1434 1433 0
1437 1435 1660 0
1661 1437 1660 0
1436 1437 1661 0
1431 1436 1661 0
1231 1662 1664 0
1662 1231 1017 0
1665 1438 1234 0
1663 1433 1438 0
1665 1663 1438 0
1439 1228 1666 0
1667 1432 1440 0
1441 1231 1668 0
1231 1664 1668 0
1234 1442 1669 0
1665 1234 1669 0
1667 816 1444 0
1667 1440 816 0
1441 1670 1445 0
1668 1670 1441 0
1447 1671 1446 0
1672 1671 1447 0
1442 1446 1671 0
1442 1671 1669 0
1673 1439 1666 0
1674 1673 1666 0
1439 1673 1254 0
1444 1443 1675 0
1443 1448 1675 0
1667 1444 1675 0
1676 1450 1449 0
1676 1449 1451 0
1670 1451 1445 0
1676 1451 1670 0
1452 1672 1447 0
1677 1671 1672 0
1678 1673 1674 0
1679 1678 1674 0
1254 1680 1255 0
1254 1673 1680 0
1673 1678 1680 0
1680 1681 1255 0
1681 1453 1255 0
1682 1454 1453 0
1675 1448 1454 0
1682 1675 1454 0
1450 1683 1455 0
1676 1683 1450 0
1452 1456 1684 0
1452 1684 1672 0
1684 1677 1672 0
1685 1453 1681 0
1682 1453 1685 0
1686 1458 1457 0
1683 1457 1455 0
1686 1457 1683 0
1456 1687 1684 0
1677 1684 1687 0
1688 1689 1690 0
1690 1689 1691 0
1460 1692 1693 0
1459 1460 1693 0
1458 1694 1460 0
1694 1692 1460 0
1686 1694 1458 0
1456 1461 1687 0
1690 1695 1688 0
1459 1696 1462 0
1459 1693 1696 0
1461 1463 1697 0
1462 1698 1699 0
1465 1462 1699 0
1700 1698 1462 0
1696 1700 1462 0
1463 1701 1697 0
1702 1703 1704 0
1695 1702 1705 0
1688 1695 1705 0
1689 1688 1705 0
1466 1706 1263 0
1466 1464 1707 0
1706 1466 1707 0
1464 825 1708 0
1707 1464 1708 0
825 1709 1708 0
825 1465 1709 0
1465 1699 1709 0
1701 1463 1710 0
1704 1710 1711 0
1712 1713 1689 0
1467 1263 1706 0
1710 1463 1264 0
1702 1704 1705 0
1705 1712 1689 0
1265 1467 1706 0
1265 1706 1714 0
1714 1706 1715 0
1715 1706 1707 0
1716 1711 1710 0
1717 1716 1710 0
1704 1711 1716 0
1705 1704 1716 0
1265 1718 1468 0
1714 1719 1265 0
1719 1718 1265 0
1715 1719 1714 0
1705 1716 1720 0
1468 1721 1266 0
1049 1722 1264 0
1049 1723 1722 0
1723 1724 1722 0
1724 1725 1722 0
1716 1726 1727 0
1469 1728 1729 0
1721 1469 1266 0
1728 1469 1721 0
1723 1470 1724 0
1049 1470 1723 0
1729 1730 1469 0
1470 1731 1732 0
1470 1732 1724 0
1733 1727 1726 0
1734 1733 1726 0
1716 1727 1733 0
1720 1716 1735 0
1736 1472 1730 0
1472 1469 1730 0
1470 1473 1731 0
1734 1737 1733 0
1738 1716 1733 0
1716 1738 1739 0
1739 1735 1716 0
1736 1740 1472 0
1473 1477 1731 0
1738 1733 1737 0
1739 1738 1741 0
1740 1742 1472 0
1731 1477 1482 0
1743 1731 1482 0
1744 1737 1745 0
1738 1737 1744 0
1472 1742 1478 0
1746 1743 1482 0
1738 1744 1747 0
1478 1742 1486 0
1485 1748 1481 0
1749 1748 1485 0
1481 1748 1750 0
1481 1750 1482 0
1482 1750 1746 0
1486 1751 1488 0
1485 1487 1752 0
1485 1752 1749 0
1752 1753 1749 0
1750 1748 1753 0
1753 1748 1749 0
1489 1488 1751 0
1489 1752 1487 0
1750 1753 1754 0
1752 1489 1755 0
1756 1753 1755 0
1755 1753 1752 0
1755 1489 1757 0
1758 1756 1755 0
1757 1758 1755 0
1759 1760 1489 0
1757 1489 1761 0
1761 1489 1760 0
1762 1763 1764 0
1762 1765 1766 0
1763 1762 1767 0
