#!ascii version written be Caret
20658 37174
17047 17328 17046 0
17047 17049 17328 0
17049 17329 17328 0
17049 17330 17329 0
16744 17330 17049 0
16444 17050 16744 0
16744 17050 17330 0
17331 17332 17333 0
17332 17334 17333 0
16447 17335 17050 0
16746 17336 16447 0
16447 17336 17335 0
16749 17336 16746 0
16749 17337 17336 0
17332 17337 16749 0
17057 17332 16749 0
17334 17332 17057 0
17338 17333 17334 0
17338 17334 17051 0
17051 17334 17057 0
17338 17051 17339 0
17051 17057 17052 0
17339 17051 17053 0
17339 17053 17058 0
17339 17058 17340 0
17043 17325 17056 0
17054 17341 17061 0
17054 17055 17342 0
17341 17054 17342 0
17055 17343 17342 0
17055 17056 17343 0
17061 17341 17067 0
17342 17344 17341 0
17344 17067 17341 0
17345 17342 17343 0
17344 17342 17345 0
17065 17346 17068 0
17065 17066 17347 0
17346 17065 17347 0
17066 17067 17347 0
17344 17347 17067 0
17060 17064 17348 0
17064 16756 17348 0
17349 17350 17351 0
17352 17350 17349 0
16756 17069 17348 0
17352 17349 17353 0
17349 17354 17353 0
17351 17355 17349 0
17355 17354 17349 0
17356 17355 17351 0
17346 17075 17068 0
17347 17076 17346 0
17076 17075 17346 0
17344 17076 17347 0
17357 17358 17359 0
17357 17360 17361 0
17359 17360 17357 0
17361 17360 17070 0
17360 17362 17070 0
17363 17353 17071 0
17363 17071 17362 0
17362 17071 17070 0
17073 17071 17353 0
17354 17073 17353 0
17081 17073 17354 0
17081 17354 17364 0
17364 17354 17355 0
17068 17075 16174 0
17365 17358 17357 0
17366 17358 17365 0
17070 17365 17361 0
17361 17365 17357 0
17082 17081 17364 0
17355 17082 17364 0
17082 17355 17367 0
17367 17355 17356 0
17368 17367 17356 0
17368 17356 17369 0
16759 17370 17069 0
16759 17069 16177 0
17077 17076 17344 0
17366 17371 17372 0
17365 17371 17366 0
17365 17074 17371 0
17070 17074 17365 0
16759 17373 17370 0
17077 17344 17078 0
17078 17344 17345 0
17374 17372 17371 0
17375 17372 17374 0
17082 17367 17083 0
17368 17083 17367 0
17376 17368 17369 0
16760 17373 16759 0
17078 17345 17084 0
17377 17378 17379 0
17380 17378 17377 0
17375 17379 17378 0
17375 17374 17379 0
17371 17381 17374 0
17381 17379 17374 0
17074 17080 17381 0
17074 17381 17371 0
17080 17079 17381 0
17381 17079 17382 0
17079 17083 17382 0
17382 17083 17368 0
16760 16762 17085 0
17380 17377 17383 0
17377 17384 17383 0
17379 17384 17377 0
17381 17385 17379 0
17382 17386 17381 0
17386 17387 17381 0
17386 17382 17368 0
17376 17386 17368 0
17384 17379 17388 0
17385 17388 17379 0
17385 17381 17387 0
17389 17085 17087 0
17390 17389 17087 0
17087 17088 17390 0
17390 17088 17391 0
16182 17086 16185 0
17089 17392 17090 0
17391 17088 17090 0
17392 17391 17090 0
17086 17092 16185 0
17091 17393 17089 0
17089 17393 17392 0
17091 17093 17394 0
17393 17091 17394 0
17098 17395 17093 0
17093 17395 17394 0
16481 17092 17099 0
17094 17102 17396 0
17094 17397 17096 0
17396 17397 17094 0
17096 17397 17104 0
17097 17398 16774 0
17399 17398 17097 0
16774 17398 17395 0
16774 17395 17098 0
17099 17400 17105 0
17396 17107 17401 0
17102 17107 17396 0
17402 17396 17401 0
17397 17396 17402 0
17104 17397 17403 0
17397 17402 17403 0
17403 17404 17104 0
17104 17405 17103 0
17404 17405 17104 0
17103 17399 17097 0
17103 17405 17399 0
17405 17406 17399 0
17395 17398 17406 0
17406 17398 17399 0
17400 17108 17105 0
17407 17108 17400 0
17107 17109 17408 0
17107 17408 17401 0
17408 17409 17401 0
17409 17402 17401 0
17404 17403 17402 0
17406 17405 17404 0
17410 17406 17404 0
17395 17406 17410 0
17108 17407 15567 0
17407 17411 15567 0
17109 16782 17408 0
17409 17408 17412 0
17412 17408 16782 0
17412 17413 17409 0
15567 17414 15568 0
16782 17110 17415 0
15568 17414 17111 0
17113 17111 17416 0
17417 17112 17114 0
17112 17417 17115 0
17110 17115 17418 0
17419 17113 17416 0
17116 17113 17419 0
17117 17420 17421 0
16798 17420 17117 0
17417 17114 17117 0
17417 17117 17422 0
17422 17117 17421 0
17116 17423 16799 0
17419 17423 17116 0
16798 16804 17420 0
17420 16804 17424 0
16799 17423 16805 0
17423 17425 16805 0
16810 17118 17426 0
16810 17426 17427 0
17424 16804 16810 0
17427 17424 16810 0
16805 17425 16520 0
17426 17118 17119 0
17428 17426 17119 0
16520 17425 16816 0
17425 17429 16816 0
16815 17428 17119 0
16816 17429 17430 0
16815 16819 17428 0
17428 16819 17431 0
17121 16816 17430 0
16816 17121 17120 0
17431 16819 17124 0
17432 17431 17124 0
17433 17432 17124 0
16824 17122 17434 0
17435 17433 17123 0
17435 17123 17434 0
17434 17123 16824 0
17124 17123 17433 0
16822 17121 17125 0
17436 17125 17121 0
17122 16828 17437 0
17125 17436 17438 0
17125 17438 17126 0
16829 16538 17439 0
16538 17440 17439 0
17437 16828 16829 0
17439 17437 16829 0
16835 17127 17441 0
17127 17133 17441 0
17136 17129 17138 0
17441 17133 17442 0
17442 17133 17140 0
15906 17443 17147 0
15906 17136 17443 0
17142 17143 17138 0
17442 17140 17145 0
17444 17442 17145 0
17131 17445 16841 0
17145 17146 17444 0
17444 17146 17446 0
17147 17443 17148 0
17148 17443 17447 0
17146 17448 17446 0
17149 17448 17146 0
17148 17449 12544 0
17447 17449 17148 0
17445 17151 16841 0
17450 17151 17451 0
17152 17151 17450 0
17149 17153 17452 0
17452 17153 17453 0
17153 16858 17453 0
17453 16858 16859 0
17454 17453 16859 0
17152 17450 17455 0
17152 17455 17154 0
17154 17455 17155 0
17455 17156 17155 0
17456 17156 17455 0
16859 16861 17454 0
17454 16861 17457 0
17458 17157 17459 0
17150 17157 17458 0
17460 17458 17459 0
17156 17456 17158 0
17456 17461 17158 0
16861 17462 17457 0
16862 17462 16861 0
16862 16565 17462 0
17157 17159 17459 0
17159 17463 17459 0
17463 17460 17459 0
17158 17461 17464 0
17464 17160 17158 0
17159 17162 17463 0
17164 17163 17464 0
17464 17163 17160 0
12544 17465 16267 0
17166 16870 17466 0
17164 17167 17165 0
17467 17167 17164 0
17467 17169 17168 0
17467 17168 17167 0
17467 17468 17169 0
17469 16870 16571 0
17470 16267 17465 0
17169 17468 17171 0
17468 17471 17171 0
16571 16873 17469 0
17470 17472 17172 0
16267 17470 17172 0
17471 17170 17171 0
17473 16873 16878 0
17172 17472 16879 0
17176 16879 17472 0
17176 17472 17470 0
17474 17176 17470 0
17173 17177 17475 0
16889 17476 16890 0
17474 16891 17176 0
16891 17175 17176 0
17477 16891 17474 0
17477 17478 16891 0
17177 17178 17479 0
17476 17480 16890 0
17478 17481 16891 0
17178 17179 17479 0
17179 17482 17479 0
16890 17480 17483 0
17483 17182 16890 0
16878 17484 17473 0
17180 17484 16878 0
17179 17181 17482 0
17482 17181 17485 0
17483 17183 17182 0
17483 17486 17183 0
16583 17487 17180 0
17487 17484 17180 0
16891 17481 16901 0
16902 16901 17481 0
17485 17181 16905 0
17183 17486 17184 0
17184 17486 16590 0
17486 16910 16590 0
17185 17488 17487 0
17185 17487 16583 0
16902 17489 17186 0
17186 17191 17187 0
17485 16905 17193 0
16910 17486 17188 0
17190 17488 17185 0
17192 17490 17193 0
17195 17490 17192 0
17491 17194 17189 0
16907 17488 17190 0
17191 16917 16908 0
17194 17491 17492 0
17492 17196 17194 0
16907 17198 17493 0
17493 17198 17494 0
16319 17495 16619 0
17200 17196 17492 0
17200 17492 17496 0
17205 17494 17202 0
17202 17494 17198 0
17497 17498 17211 0
17499 17207 16617 0
16619 17499 16617 0
17495 17499 16619 0
16612 16613 17500 0
17200 17496 17204 0
17205 17204 17496 0
17211 17498 17501 0
17501 17498 17208 0
16613 17502 17500 0
16613 16615 17502 0
16615 17503 17504 0
16615 17504 17502 0
17503 17505 17506 0
17504 17503 17506 0
17208 17507 17209 0
17208 17498 17507 0
17501 17208 17210 0
17211 17501 17210 0
16620 17503 16615 0
16620 17508 17503 0
17508 17505 17503 0
17507 17509 17209 0
16620 16934 17508 0
16934 17510 17508 0
16934 16935 17510 0
17511 17512 17509 0
17209 17512 17212 0
17509 17512 17209 0
17513 17512 17511 0
17514 17513 17511 0
17212 17512 16933 0
17215 17515 17516 0
17215 17516 17517 0
17515 17518 17519 0
17516 17515 17519 0
17519 17518 17520 0
16933 17512 17521 0
17512 17513 17521 0
16933 17521 16937 0
17515 17217 17522 0
17215 17217 17515 0
17518 17515 17523 0
17523 17515 17522 0
17524 17520 17518 0
17523 17524 17518 0
17513 17220 17521 0
17521 17220 16937 0
17217 17219 17522 0
17221 17522 17219 0
17523 17522 17221 0
17221 17524 17523 0
17220 17525 16943 0
17222 17526 17221 0
17527 17225 17528 0
17529 17530 17225 0
17222 16652 17531 0
16943 17532 17223 0
17223 17532 17533 0
17533 17224 17223 0
17534 17224 17533 0
17225 17227 17535 0
17225 17535 17528 0
17226 17225 17536 0
17530 17537 17225 0
17537 17536 17225 0
17537 17530 17538 0
17531 16655 16946 0
16652 16655 17531 0
17236 17531 16946 0
17224 17534 16945 0
17229 17528 17535 0
17535 17227 17229 0
17230 17226 17536 0
17537 17230 17536 0
17230 17537 17538 0
17239 17539 17236 0
16947 16945 17534 0
17230 17538 17232 0
17235 17232 17538 0
17235 17540 17233 0
17234 17233 17541 0
17233 17540 17541 0
17240 17542 17241 0
17241 17542 17238 0
17542 17240 17543 0
16947 17544 17242 0
17234 17541 17244 0
17247 17244 17541 0
17545 17247 17541 0
17545 17249 17247 0
17545 17546 17249 0
17546 17547 17249 0
17548 17543 17240 0
16949 17548 17240 0
17544 17549 17242 0
17549 17245 17242 0
17550 16957 17248 0
17550 17248 17547 0
17547 17248 17249 0
17550 17254 16957 0
16949 17250 17548 0
17250 17251 16959 0
16950 17245 17551 0
17551 17245 17549 0
17552 17229 17228 0
17228 16955 17552 0
16950 17551 17553 0
17553 16951 16950 0
16955 17554 17552 0
16955 17252 17554 0
17252 17555 17554 0
17555 17252 17253 0
17556 17555 17253 0
17254 17557 16962 0
17255 16962 17557 0
17255 17558 17256 0
17558 17559 17256 0
17560 16951 17553 0
16951 17560 17257 0
17256 17559 17561 0
17258 17256 17561 0
17258 17561 17259 0
17257 17562 16967 0
17560 17562 17257 0
17253 17262 17556 0
17264 17259 17563 0
17562 17564 16967 0
17565 17262 17266 0
17264 17563 17566 0
17267 17264 17566 0
16967 17564 16980 0
17564 17567 16980 0
17267 17566 17568 0
17267 17569 16991 0
17267 17568 17569 0
17569 17570 16991 0
16984 17269 16983 0
16984 17268 17269 0
16980 17567 16989 0
17272 17571 16982 0
17272 17572 17571 0
17277 17572 17272 0
17281 17573 17277 0
17277 17573 17572 0
17574 16984 17273 0
17575 16984 17574 0
17273 16998 17574 0
17281 17004 17286 0
17281 17286 17576 0
17282 17577 17578 0
17575 17578 17577 0
17575 17574 17578 0
16998 17578 17574 0
17279 17579 17580 0
17279 17280 17579 0
17286 17581 17576 0
17285 17581 17286 0
17287 17582 17583 0
17287 17583 17285 0
17285 17583 17581 0
17282 17578 17584 0
16998 17585 17578 0
17585 17584 17578 0
16998 17283 17585 0
17586 17580 17579 0
17587 17580 17586 0
17583 17582 17588 0
17282 17584 17291 0
17292 17291 17584 0
17585 17292 17584 0
17283 17292 17585 0
17278 17589 16697 0
17589 17278 17590 0
17278 17288 17590 0
17295 17279 17580 0
17295 17580 17587 0
17586 17591 17587 0
17582 17014 17592 0
17287 17014 17582 0
17593 17582 17592 0
17588 17582 17594 0
17594 17582 17593 0
16700 16697 17589 0
16700 17589 17595 0
17590 17596 17589 0
17596 17595 17589 0
17288 17294 17597 0
17288 17597 17590 0
17294 17289 17597 0
17597 17289 17295 0
17598 17599 17587 0
17599 17295 17587 0
17591 17598 17587 0
17014 17296 17592 0
17298 17592 17296 0
17593 17592 17298 0
17297 17593 17298 0
17297 17594 17593 0
17597 17596 17590 0
17599 17600 17295 0
17601 17599 17598 0
17600 17599 17601 0
17297 17018 17602 0
17018 17019 17602 0
17019 17603 17602 0
17595 17596 17299 0
16700 17595 17299 0
17597 17604 17596 0
17295 17604 17597 0
17604 17295 17600 0
17601 17604 17600 0
17019 16704 17603 0
17603 16704 17301 0
17603 17301 17605 0
17596 17606 17299 0
17299 17606 16417 0
17303 17607 17302 0
17607 17303 17304 0
17608 17607 17304 0
16417 17606 17307 0
17609 17608 17304 0
17304 17305 17609 0
17609 17305 17306 0
17313 17610 17308 0
17611 17312 17029 0
17313 17312 17610 0
17309 17612 17314 0
17315 17314 17612 0
17613 17315 17612 0
17613 17614 17315 0
17315 17614 17316 0
17316 17614 17615 0
17306 17310 17616 0
17617 17618 17619 0
17617 17611 17620 0
17619 17611 17617 0
17611 17029 17620 0
17316 17615 17033 0
17615 17621 17033 0
17033 17621 17317 0
17622 17623 17321 0
17624 17618 17617 0
17625 17618 17624 0
17318 17624 17620 0
17620 17624 17617 0
17029 17318 17620 0
17321 17036 17317 0
17322 17321 17626 0
17623 17627 17321 0
17627 17626 17321 0
17616 17627 17623 0
17616 17310 17627 0
17625 17624 17628 0
17318 17320 17629 0
17624 17318 17629 0
17627 17322 17626 0
17323 17322 17627 0
17310 17323 17627 0
17628 17624 17630 0
17624 17631 17630 0
17320 17040 17631 0
17320 17631 17629 0
17629 17631 17624 0
17632 17633 17630 0
17634 17633 17632 0
17631 17632 17630 0
17040 16740 17631 0
17634 17635 17636 0
17634 17632 17635 0
17631 17637 17632 0
17637 17635 17632 0
17631 16740 17637 0
16740 17326 17637 0
17638 17639 17635 0
17637 17638 17635 0
17326 17640 17637 0
17327 17046 17640 0
17326 17327 17640 0
17639 17638 17641 0
17637 17641 17638 0
17046 17328 17642 0
17046 17642 17640 0
17642 17328 17329 0
17637 17643 17641 0
17643 17644 17641 0
17640 17643 17637 0
17643 17640 17642 0
17645 17642 17329 0
17329 17330 17645 0
17050 17646 17330 0
17330 17646 17645 0
17050 17647 17646 0
17648 17336 17649 0
17649 17332 17331 0
17331 17333 17649 0
17644 17643 17650 0
17050 17335 17647 0
17335 17336 17647 0
17648 17647 17336 0
17649 17336 17337 0
17332 17649 17337 0
17333 17338 17651 0
17651 17338 17652 0
17338 17339 17652 0
17652 17339 17340 0
17650 17653 17644 0
17643 17653 17650 0
17340 17058 17654 0
17325 17655 17056 0
17655 17656 17056 0
17654 17058 17060 0
17657 17654 17060 0
17056 17656 17343 0
17657 17060 17658 0
17659 17660 17661 0
17662 17660 17659 0
17663 17658 17348 0
17348 17658 17060 0
17664 17665 17666 0
17662 17666 17665 0
17662 17659 17666 0
17659 17667 17666 0
17661 17369 17659 0
17369 17667 17659 0
17668 17369 17661 0
17351 17669 17664 0
17351 17350 17669 0
17350 17670 17669 0
17356 17351 17664 0
17666 17356 17664 0
17667 17356 17666 0
17369 17356 17667 0
17663 17348 17671 0
17353 17672 17670 0
17353 17670 17352 0
17352 17670 17350 0
17673 17674 17668 0
17353 17363 17672 0
17674 17675 17668 0
17675 17369 17668 0
17671 17676 17677 0
17348 17069 17676 0
17671 17348 17676 0
17678 17360 17359 0
17360 17678 17362 0
17679 17675 17674 0
17676 17680 17677 0
17359 17358 17681 0
17358 17366 17681 0
17682 17675 17679 0
17683 17684 17680 0
17680 17685 17683 0
17370 17685 17676 0
17676 17685 17680 0
17069 17370 17676 0
17372 17686 17687 0
17681 17366 17372 0
17687 17681 17372 0
17685 17688 17683 0
17370 17373 17688 0
17685 17370 17688 0
17689 17690 17345 0
17378 17686 17375 0
17375 17686 17372 0
17376 17369 17675 0
17682 17376 17675 0
17691 17684 17683 0
17692 17684 17691 0
17373 16760 17691 0
17373 17691 17688 0
17688 17691 17683 0
17345 17690 17084 0
17693 17694 17380 0
17686 17378 17694 0
17694 17378 17380 0
17085 17692 17691 0
17085 17695 17692 0
16760 17085 17691 0
17693 17383 17696 0
17380 17383 17693 0
17386 17376 17697 0
17697 17376 17698 0
17698 17376 17699 0
17700 17695 17389 0
17389 17695 17085 0
17084 17690 17086 0
17701 17702 17696 0
17703 17702 17701 0
17696 17383 17704 0
17696 17704 17701 0
17383 17384 17705 0
17704 17383 17705 0
17387 17386 17697 0
17706 17387 17697 0
17390 17707 17700 0
17389 17390 17700 0
17703 17708 17709 0
17703 17701 17708 0
17704 17708 17701 0
17384 17388 17710 0
17384 17710 17705 0
17710 17388 17711 0
17388 17385 17711 0
17385 17387 17706 0
17385 17706 17711 0
17711 17706 17712 0
17697 17698 17706 0
17698 17712 17706 0
17392 17707 17391 0
17391 17707 17390 0
17713 17709 17708 0
17714 17709 17713 0
17704 17715 17708 0
17715 17713 17708 0
17705 17715 17704 0
17710 17715 17705 0
17711 17715 17710 0
17716 17715 17711 0
17716 17711 17712 0
17714 17713 17717 0
17715 17717 17713 0
17718 17715 17716 0
17719 17718 17716 0
17394 17720 17721 0
17394 17721 17393 0
17393 17721 17392 0
17722 17723 17717 0
17724 17723 17722 0
17725 17722 17717 0
17726 17725 17715 0
17725 17717 17715 0
17724 17722 17727 0
17725 17727 17722 0
17728 17725 17726 0
17394 17395 17720 0
17720 17395 17729 0
17099 17092 17400 0
17092 17730 17400 0
17731 17732 17727 0
17733 17732 17731 0
17725 17728 17727 0
17728 17731 17727 0
17407 17400 17734 0
17400 17730 17734 0
17402 17409 17735 0
17402 17736 17404 0
17735 17736 17402 0
17736 17737 17404 0
17737 17410 17404 0
17738 17395 17410 0
17737 17738 17410 0
17739 17407 17734 0
17411 17407 17739 0
17409 17413 17735 0
17740 17735 17413 0
17741 17735 17740 0
17736 17735 17741 0
15567 17411 17414 0
17731 17742 17743 0
17728 17744 17731 0
17412 16782 17745 0
17412 17745 17746 0
17413 17412 17746 0
17740 17413 17746 0
17415 17745 16782 0
17415 17747 17745 0
17748 17746 17745 0
17747 17748 17745 0
17742 17749 17750 0
17749 17751 17750 0
17731 17749 17742 0
17744 17749 17731 0
17415 17110 17752 0
17752 17110 17753 0
17747 17415 17752 0
17754 17747 17752 0
17748 17747 17754 0
17111 17414 17416 0
17749 17755 17751 0
17115 17417 17756 0
17417 17757 17756 0
17418 17115 17756 0
17753 17110 17418 0
17756 17753 17418 0
17749 17758 17755 0
17759 17758 17749 0
17421 17420 17759 0
17421 17759 17760 0
17760 17759 17749 0
17422 17421 17760 0
17757 17422 17760 0
17417 17422 17757 0
17423 17419 17761 0
17762 17763 17758 0
17759 17764 17758 0
17764 17762 17758 0
17420 17424 17764 0
17759 17420 17764 0
17765 17423 17761 0
17425 17423 17765 0
17766 17767 17763 0
17762 17766 17763 0
17764 17426 17762 0
17427 17426 17764 0
17424 17427 17764 0
17765 17768 17425 0
17769 17770 17767 0
17766 17769 17767 0
17762 17771 17766 0
17428 17771 17762 0
17426 17428 17762 0
17425 17768 17429 0
17430 17429 17772 0
17773 17770 17769 0
17774 17773 17769 0
17766 17774 17769 0
17771 17775 17766 0
17428 17431 17775 0
17771 17428 17775 0
17121 17430 17772 0
17766 17776 17774 0
17432 17776 17775 0
17775 17776 17766 0
17431 17432 17775 0
17777 17121 17772 0
17433 17435 17774 0
17774 17435 17773 0
17432 17433 17774 0
17776 17432 17774 0
17778 17121 17777 0
17773 17779 17780 0
17434 17122 17779 0
17434 17779 17435 0
17435 17779 17773 0
17121 17778 17436 0
17436 17778 17781 0
17782 17783 17780 0
17779 17784 17780 0
17784 17782 17780 0
17122 17437 17784 0
17779 17122 17784 0
17436 17781 17785 0
17436 17785 17438 0
17438 17785 17126 0
16537 17126 17785 0
16538 16537 17786 0
16537 17785 17786 0
17782 17440 17786 0
17786 17440 16538 0
17439 17440 17782 0
17784 17439 17782 0
17437 17439 17784 0
16835 17787 17131 0
17787 16835 17441 0
17443 17136 17788 0
17788 17136 17138 0
17143 17789 17138 0
17789 17143 17144 0
17790 17789 17144 0
17442 17791 17441 0
17442 17444 17791 0
17787 17792 17445 0
17131 17787 17445 0
17441 17793 17787 0
17793 17792 17787 0
17791 17794 17441 0
17794 17793 17441 0
17444 17446 17794 0
17791 17444 17794 0
17144 17150 17790 0
17795 17793 17796 0
17795 17792 17793 0
17794 17796 17793 0
17797 17796 17794 0
17446 17797 17794 0
17446 17448 17797 0
17448 17798 17797 0
17798 17448 17149 0
17799 17798 17149 0
17447 17800 17449 0
17445 17792 17151 0
17792 17451 17151 0
17792 17795 17451 0
17149 17801 17799 0
17149 17452 17801 0
17802 17150 17803 0
17803 17804 17805 0
17802 17803 17805 0
17805 17804 17806 0
17451 17795 17450 0
17795 17807 17450 0
17452 17453 17454 0
17150 17458 17803 0
17458 17808 17803 0
17808 17804 17803 0
17809 17806 17804 0
17808 17809 17804 0
17450 17807 17810 0
17455 17450 17810 0
17456 17455 17811 0
17455 17810 17811 0
17811 17812 17456 0
17449 17465 12544 0
17813 17449 17800 0
17465 17449 17813 0
17458 17460 17808 0
17460 17809 17808 0
17809 17460 17814 0
17815 17456 17812 0
17461 17456 17815 0
16565 17816 17462 0
17463 17814 17460 0
17464 17461 17815 0
17164 17464 17815 0
16565 17817 17816 0
17817 16565 17166 0
17162 16874 17463 0
17166 17466 17817 0
17164 17468 17467 0
17469 17466 16870 0
17470 17818 17819 0
17470 17465 17818 0
17471 17174 17170 0
17820 16873 17473 0
17470 17819 17474 0
17477 17474 17819 0
17821 17477 17819 0
17477 17821 17822 0
17822 17478 17477 0
17174 17476 16889 0
17823 17476 17174 0
17177 17479 17475 0
17475 17479 17824 0
17483 17480 17823 0
17823 17480 17476 0
17825 17820 17473 0
17826 17827 17478 0
17827 17481 17478 0
17479 17482 17824 0
17824 17482 17485 0
17484 17828 17825 0
17484 17825 17473 0
17827 16902 17481 0
16902 17827 17489 0
17483 17829 17486 0
17828 17484 17830 0
17830 17484 17487 0
17485 17193 17831 0
17831 17193 17490 0
17832 17833 17487 0
17833 17830 17487 0
17487 17488 17832 0
17186 17834 17191 0
17834 17835 17191 0
17486 17829 17836 0
17486 17836 17188 0
17188 17836 17189 0
17836 17491 17189 0
17837 17833 17832 0
17832 17488 17837 0
17835 16917 17191 0
17838 16917 17835 0
17490 17195 17839 0
17491 17836 17840 0
17491 17841 17842 0
17491 17840 17841 0
17837 17842 17841 0
17488 17842 17837 0
17843 17844 17845 0
17846 17843 17845 0
17844 17838 17845 0
17844 16319 17838 0
16319 16917 17838 0
17195 17847 17839 0
17491 17842 17492 0
16907 17493 17488 0
17848 17849 17499 0
17843 17499 17495 0
16319 17844 17495 0
17844 17843 17495 0
17195 16612 17847 0
17492 17842 17850 0
17488 17851 17842 0
17851 17850 17842 0
17493 17494 17851 0
17488 17493 17851 0
17852 17853 17497 0
17848 17854 17849 0
17855 17849 17854 0
17499 17849 17855 0
17496 17492 17850 0
17851 17496 17850 0
17205 17496 17851 0
17494 17205 17851 0
17497 17856 17498 0
17497 17853 17856 0
17854 17497 17211 0
17206 17854 17211 0
17207 17854 17206 0
17855 17854 17207 0
17499 17855 17207 0
17856 17509 17498 0
17504 17500 17502 0
17857 17500 17504 0
17498 17509 17507 0
17505 17508 17510 0
17858 17511 17509 0
17859 17214 17215 0
17859 17215 17517 0
17859 17517 17860 0
17860 17517 17861 0
17862 17514 17511 0
17517 17863 17861 0
17516 17863 17517 0
17516 17519 17863 0
17864 17519 17520 0
17865 17513 17514 0
17865 17514 17862 0
17526 17864 17524 0
17864 17520 17524 0
17513 17865 17866 0
17513 17866 17220 0
17867 17868 17869 0
17868 17529 17869 0
17524 17221 17526 0
17866 17525 17220 0
17527 17870 17867 0
17869 17529 17867 0
17529 17527 17867 0
17871 16943 17525 0
17527 17528 17872 0
17527 17872 17870 0
17529 17225 17527 0
17873 17530 17529 0
17530 17873 17874 0
17531 17875 17222 0
16943 17871 17876 0
17532 16943 17876 0
17534 17533 17876 0
17533 17532 17876 0
17530 17874 17538 0
17877 17538 17874 0
17531 17236 17875 0
17539 17875 17236 0
17878 17875 17539 0
17539 17879 17878 0
17877 17235 17538 0
17235 17877 17880 0
17539 17239 17881 0
17881 17879 17539 0
17882 17883 17870 0
17872 17884 17870 0
17884 17882 17870 0
17528 17229 17884 0
17872 17528 17884 0
17235 17880 17540 0
17541 17540 17880 0
17541 17885 17545 0
17239 17238 17881 0
17881 17238 17886 0
17238 17542 17886 0
17886 17542 17543 0
17887 17883 17882 0
17547 17546 17888 0
17889 17544 16947 0
17544 17889 17549 0
17882 17890 17887 0
17884 17890 17882 0
17891 17890 17884 0
17891 17884 17229 0
17891 17229 17892 0
17547 17888 17893 0
17547 17893 17550 0
17550 17893 17254 0
17549 17894 17551 0
17889 17894 17549 0
17229 17552 17892 0
17558 17255 17895 0
17255 17557 17895 0
17895 17896 17558 0
17553 17551 17894 0
17554 17897 17552 0
17555 17897 17554 0
17555 17556 17897 0
17898 17558 17896 0
17559 17558 17898 0
17899 17897 17556 0
17559 17898 17900 0
17559 17900 17561 0
17561 17900 17259 0
17900 17563 17259 0
17560 17553 17562 0
17556 17262 17899 0
17899 17262 17565 0
17563 17900 17901 0
17563 17902 17566 0
17563 17901 17902 0
17902 17903 17566 0
17260 16971 17268 0
17904 17562 17553 0
17562 17904 17564 0
17905 17567 17904 0
17904 17567 17564 0
17266 17906 17565 0
16982 17907 17266 0
16982 17908 17907 0
17571 17908 16982 0
17570 17909 16991 0
17268 16984 17910 0
16989 17567 17276 0
17571 17572 17911 0
17911 17572 17912 0
17572 17573 17912 0
17912 17573 17281 0
17913 17912 17281 0
16991 17909 16997 0
17914 17910 17575 0
17575 17910 16984 0
17276 17567 17280 0
17915 17913 17576 0
17913 17281 17576 0
17282 16997 17914 0
17914 17577 17282 0
17575 17577 17914 0
17576 17581 17915 0
17915 17581 17916 0
17581 17583 17916 0
17917 17916 17583 0
17583 17918 17917 0
17918 17583 17588 0
17591 17586 17919 0
17588 17920 17918 0
17594 17921 17588 0
17588 17921 17920 0
17921 17594 17922 0
17598 17591 17923 0
17923 17591 17924 0
17925 17591 17919 0
17924 17591 17925 0
17926 17922 17594 0
17297 17926 17594 0
17923 17927 17928 0
17923 17928 17598 0
17598 17928 17601 0
17924 17927 17923 0
17929 17927 17924 0
17925 17929 17924 0
17297 17602 17926 0
17602 17603 17605 0
17604 17601 17930 0
17601 17928 17930 0
17596 17931 17606 0
17596 17604 17931 0
17931 17604 17932 0
17604 17933 17932 0
17930 17933 17604 0
17300 17934 17301 0
17302 17935 17300 0
17300 17935 17934 0
17935 17302 17607 0
17936 17935 17607 0
17937 17936 17607 0
17607 17608 17937 0
17938 17931 17932 0
17938 17932 17933 0
17937 17608 17609 0
17939 17938 17933 0
17940 17937 17609 0
17609 17306 17940 0
17308 17610 17941 0
17309 17308 17942 0
17613 17612 17943 0
17613 17943 17944 0
17940 17306 17945 0
17613 17944 17614 0
17615 17614 17944 0
17946 17615 17944 0
17621 17615 17946 0
17621 17946 17947 0
17947 17946 17948 0
17949 17947 17948 0
17945 17950 17622 0
17306 17616 17950 0
17945 17306 17950 0
17317 17621 17947 0
17949 17317 17947 0
17321 17317 17949 0
17622 17321 17949 0
17950 17623 17622 0
17616 17623 17950 0
17951 17938 17952 0
17951 17931 17938 0
17931 17953 17307 0
17606 17931 17307 0
17954 17955 17628 0
17307 17953 17324 0
17324 17953 17956 0
17956 17953 17931 0
17957 17958 17931 0
17951 17957 17931 0
17630 17633 17954 0
17628 17630 17954 0
17958 17956 17931 0
17633 17634 17954 0
17954 17634 17959 0
17324 17956 17960 0
17958 17961 17956 0
17962 17636 17635 0
17962 17963 17636 0
17963 17964 17636 0
17959 17634 17636 0
17964 17959 17636 0
17965 17960 17956 0
17961 17965 17956 0
17962 17635 17639 0
17966 17962 17639 0
17965 17967 17960 0
17968 17966 17639 0
17639 17969 17968 0
17639 17641 17969 0
17968 17969 17970 0
17641 17644 17970 0
17969 17641 17970 0
17324 17960 17325 0
17643 17971 17972 0
17643 17642 17971 0
17645 17971 17642 0
17646 17971 17645 0
17973 17971 17646 0
17647 17973 17646 0
17651 17974 17975 0
17652 17974 17651 0
17974 17652 17340 0
17655 17325 17960 0
17655 17960 17976 0
17967 17976 17960 0
17977 17970 17978 0
17644 17653 17970 0
17970 17653 17978 0
17653 17643 17972 0
17653 17972 17979 0
17979 17972 17980 0
17340 17654 17974 0
17976 17981 17656 0
17655 17976 17656 0
17967 17981 17976 0
17982 17978 17653 0
17979 17982 17653 0
17983 17982 17979 0
17980 17983 17979 0
17984 17985 17654 0
17985 17974 17654 0
17654 17657 17984 0
17981 17986 17656 0
17656 17986 17343 0
17987 17981 17967 0
17988 17989 17990 0
17988 17990 17991 0
17990 17992 17991 0
17993 17994 17991 0
17985 17984 17994 0
17343 17986 17345 0
17995 17989 17988 0
17996 17989 17995 0
17991 17997 17988 0
17997 17995 17988 0
17984 17998 17994 0
17657 17658 17998 0
17984 17657 17998 0
17999 18000 17662 0
18000 18001 17662 0
17996 17995 17660 0
17996 17660 18001 0
18001 17660 17662 0
17661 17660 17995 0
17997 17661 17995 0
17661 17997 18002 0
18002 17997 17991 0
17994 17663 17991 0
17663 18003 17991 0
17658 17663 17998 0
17998 17663 17994 0
17999 17665 17664 0
17662 17665 17999 0
17661 18002 17668 0
17664 17669 18004 0
17669 17670 18004 0
17668 18002 17673 0
17991 17679 18002 0
17679 17673 18002 0
18003 17679 17991 0
17663 17671 18003 0
17986 17689 17345 0
17672 18005 17670 0
17670 18005 18004 0
17674 17673 17679 0
18003 18006 17679 0
17671 17677 18006 0
17671 18006 18003 0
17672 17363 18007 0
18005 17672 18007 0
18008 18009 17678 0
18009 17362 17678 0
18007 17363 17362 0
18009 18007 17362 0
18006 18010 17679 0
17677 17680 18010 0
18006 17677 18010 0
17359 17681 18011 0
17678 17359 18011 0
17684 17682 17679 0
17680 17684 18010 0
18010 17684 17679 0
17686 18012 17687 0
18011 17681 17687 0
18011 17687 18012 0
18013 18012 17686 0
17376 17682 18014 0
17684 18015 17682 0
18015 18014 17682 0
17684 17692 18015 0
18016 18017 17690 0
18018 18019 17693 0
18019 18020 17693 0
17694 17693 18013 0
17693 18020 18013 0
18013 17686 17694 0
18014 18021 17699 0
17376 18014 17699 0
18015 18021 18014 0
17692 17695 18015 0
17696 17702 18018 0
17693 17696 18018 0
17698 17699 18021 0
17698 18021 18022 0
18023 18022 18021 0
18024 18023 18021 0
17695 17700 18024 0
17695 18024 18015 0
18015 18024 18021 0
17690 18017 17086 0
17702 17703 18018 0
17698 18022 18025 0
18023 18026 18027 0
18023 18024 18026 0
17700 17707 18026 0
18024 17700 18026 0
18028 17703 17709 0
17392 18027 18026 0
17707 17392 18026 0
18029 18028 17714 0
17714 18028 17709 0
17712 17698 18030 0
18031 17712 18030 0
17698 18025 18030 0
18030 18025 18032 0
17392 17721 18027 0
18027 17721 18033 0
17717 17723 18029 0
17723 18034 18029 0
17714 17717 18029 0
17719 17716 18035 0
17716 17712 18031 0
17716 18031 18035 0
18030 18036 18031 0
18036 18035 18031 0
18037 18036 18032 0
18036 18030 18032 0
18038 18037 18032 0
18033 17721 17720 0
18039 18033 17720 0
18040 18034 17724 0
17724 18034 17723 0
17726 17715 17718 0
18041 18042 17718 0
18041 17718 17719 0
18036 18043 18035 0
18044 18043 18036 0
18037 18044 18036 0
18045 17730 17092 0
17727 17732 18040 0
17724 17727 18040 0
18041 18046 18042 0
17720 17729 18039 0
18040 17732 18047 0
18048 17729 17395 0
18049 18047 17733 0
17733 18047 17732 0
17718 18050 17726 0
18050 17718 18042 0
18048 17395 17738 0
18051 18048 17738 0
17730 18052 18053 0
17730 18053 17734 0
17733 17731 18054 0
18049 17733 18054 0
17737 18055 17738 0
17738 18055 18051 0
17734 18053 17739 0
18047 18056 18057 0
18047 18049 18056 0
18049 18058 18056 0
17731 18058 18054 0
18054 18058 18049 0
17736 17741 18059 0
17736 18059 17737 0
18055 17737 18059 0
17411 17739 18060 0
17739 18053 18060 0
18058 18057 18056 0
17731 17743 18058 0
17726 18061 17728 0
18050 18062 17726 0
18062 18061 17726 0
17740 18063 17741 0
18064 18063 17740 0
17411 18060 17414 0
18065 18057 18058 0
17743 17742 18065 0
18058 17743 18065 0
17744 17728 18061 0
17744 18061 18066 0
18062 18066 18061 0
17746 18064 17740 0
17746 18067 18064 0
18067 18068 18064 0
18069 18063 18068 0
18068 18063 18064 0
17741 18063 18069 0
18059 17741 18069 0
18065 17750 18070 0
17742 17750 18065 0
18066 18071 17744 0
18067 18072 18073 0
18067 17746 18072 0
17746 17748 18072 0
18068 18067 18073 0
18074 18068 18073 0
18069 18068 18074 0
18075 18070 17750 0
17750 17751 18075 0
17744 18071 17749 0
18062 18071 18066 0
18076 18071 18062 0
18072 17748 17754 0
17414 18077 17416 0
18075 17755 18078 0
17751 17755 18075 0
17749 18071 17760 0
17757 17760 18071 0
17756 17757 18071 0
18076 17756 18071 0
18079 17756 18076 0
17753 17756 18079 0
17416 18077 17419 0
18080 18081 18082 0
18080 18078 18081 0
18078 18083 18081 0
17755 17758 18083 0
18078 17755 18083 0
17419 18077 17761 0
18084 18082 18081 0
18085 18082 18084 0
17758 17763 18084 0
17758 18084 18083 0
18083 18084 18081 0
18086 18087 18088 0
18086 18089 18090 0
18088 18089 18086 0
18085 18090 18089 0
18085 18084 18090 0
18084 18091 18090 0
17763 17767 18091 0
18084 17763 18091 0
18090 17770 18086 0
17767 17770 18091 0
18091 17770 18090 0
17768 18092 17429 0
18093 17772 18092 0
17772 17429 18092 0
18094 18087 18086 0
18095 18087 18094 0
17770 18096 18086 0
18096 18094 18086 0
17770 17773 18096 0
18097 17777 18093 0
18093 17777 17772 0
17773 18094 18096 0
18094 17780 17783 0
17773 17780 18094 0
18098 18099 17778 0
18098 17778 18100 0
18100 17778 17777 0
18099 18101 18102 0
18098 18101 18099 0
18101 17783 18102 0
17778 18099 17781 0
18102 18103 18099 0
18103 17781 18099 0
17783 18103 18102 0
17783 17782 18103 0
18103 17785 17781 0
17786 17785 18103 0
17782 17786 18103 0
17788 18104 18105 0
17443 17788 18105 0
17138 17789 17788 0
17788 17789 18104 0
17443 18106 17447 0
17796 17797 18107 0
17797 17798 18107 0
17798 17799 18107 0
18106 17800 17447 0
18108 17800 18106 0
18109 18110 17150 0
18110 17790 17150 0
17799 18111 18107 0
17799 17801 18111 0
17452 18112 17801 0
17150 17802 18109 0
18109 17802 18113 0
17802 17805 18113 0
18113 17805 17806 0
18114 18113 17806 0
17796 18115 17807 0
17795 17796 17807 0
18107 18116 17796 0
18116 18115 17796 0
18111 18116 18107 0
18112 17452 17454 0
18114 17806 17809 0
17807 18115 17810 0
17811 17810 18115 0
18116 17811 18115 0
17812 17811 18116 0
17812 18116 18111 0
17812 18111 17815 0
17800 18108 17813 0
18108 18117 17813 0
17809 17814 18114 0
17463 18118 17814 0
17816 18119 17462 0
18120 17813 18117 0
18121 18119 18122 0
17816 17817 18123 0
17816 18123 18119 0
18119 18123 18122 0
17813 18120 17465 0
17463 16874 18118 0
17164 17815 18124 0
18123 17817 18125 0
18125 17817 17466 0
18120 17818 17465 0
17468 17164 18124 0
18126 18125 17466 0
17466 17469 18126 0
18127 17818 18120 0
17471 17468 18128 0
17469 18129 18126 0
18127 17821 17818 0
17821 17819 17818 0
18130 18131 18127 0
17475 18132 17173 0
17471 18128 18133 0
17469 16873 18134 0
18129 17469 18134 0
17822 17821 18127 0
18132 17475 18135 0
17471 18133 17174 0
17174 18133 18136 0
18136 18133 18137 0
18136 18137 18138 0
16873 18139 18134 0
18134 18139 18140 0
16873 17820 18139 0
18131 17822 18127 0
17823 18138 17829 0
17174 18138 17823 0
17174 18136 18138 0
18138 18141 17829 0
18139 18141 18140 0
17826 17478 17822 0
18131 17826 17822 0
17826 18131 18142 0
17823 17829 17483 0
18139 17828 18141 0
17820 17825 17828 0
18139 17820 17828 0
18142 17489 17827 0
17826 18142 17827 0
17828 17829 18141 0
17828 17830 18143 0
17489 17834 17186 0
17489 18144 17834 0
17830 17833 18143 0
17834 18145 17835 0
17836 17829 18146 0
18146 17829 17828 0
18143 18147 17828 0
18147 18146 17828 0
17833 17837 18147 0
18143 17833 18147 0
18148 17835 18145 0
17835 18148 17838 0
17490 17839 18149 0
18149 17839 18150 0
18150 17839 18151 0
17836 18146 17840 0
17841 17840 18146 0
18147 17841 18146 0
17837 17841 18147 0
18152 17843 17846 0
18152 17846 18153 0
18148 18153 17845 0
18153 17846 17845 0
17838 18148 17845 0
17839 18154 18151 0
17847 18154 17839 0
17848 18155 17854 0
18152 17848 17499 0
17843 18152 17499 0
16612 18156 17847 0
18157 18158 18159 0
17852 18157 17853 0
17852 18158 18157 0
17854 17852 17497 0
17853 18160 17856 0
18157 18160 17853 0
16612 17500 18161 0
17500 17857 18161 0
17857 17504 18162 0
17857 18162 18161 0
18160 17509 17856 0
17505 18163 18164 0
17505 18164 17506 0
17506 18164 17504 0
18165 17509 18160 0
17505 17510 18163 0
16935 17214 17510 0
18166 17858 17509 0
17214 18167 17510 0
17214 17859 18167 0
18167 17859 17860 0
18168 18167 17860 0
18169 18168 17861 0
18168 17860 17861 0
18170 17511 17858 0
18170 17858 18166 0
17511 18170 17862 0
18171 18172 18173 0
18173 18174 18175 0
18172 18174 18173 0
17861 17863 18169 0
17863 17519 18169 0
18169 17519 17864 0
18176 18177 18170 0
17862 18177 17865 0
18170 18177 17862 0
17868 18178 18173 0
18175 17868 18173 0
18179 18175 18174 0
18179 18180 18175 0
18180 17868 18175 0
18180 18181 18182 0
18179 18181 18180 0
18181 18183 18182 0
17526 18169 17864 0
17865 18177 17866 0
17868 17867 18178 0
17529 17868 18184 0
18184 17868 18180 0
18182 17873 18180 0
17873 18184 18180 0
18185 18182 18183 0
17873 18182 18185 0
18186 18177 18176 0
18187 18186 18176 0
17866 18177 18188 0
18188 18177 18186 0
17866 18188 17525 0
18178 18189 18173 0
17867 17870 18189 0
17867 18189 18178 0
17873 17529 18184 0
17873 18185 17874 0
17526 17222 18190 0
17525 18188 17871 0
18191 18192 18173 0
18193 18192 18191 0
18189 18194 18173 0
18194 18191 18173 0
18189 17870 18194 0
17222 18195 18190 0
17875 18195 17222 0
17875 17878 18195 0
18196 17878 17879 0
18186 18197 18188 0
17871 18198 17876 0
17871 18188 18198 0
18188 18197 18198 0
17876 18198 17534 0
18193 18194 18199 0
18193 18191 18194 0
17874 18200 17877 0
17877 18200 17880 0
18198 18197 18201 0
17534 18198 16947 0
17883 18199 18194 0
18194 17870 17883 0
18201 18202 18198 0
18198 18202 16947 0
18203 18199 17883 0
17546 17545 18204 0
17545 17885 18204 0
18204 18205 17546 0
18206 17886 17543 0
18203 17883 18207 0
18207 17883 17887 0
17888 17546 18205 0
17543 17548 18206 0
18206 17548 18208 0
18209 17889 16947 0
17887 18210 18207 0
17890 18210 17887 0
17891 18210 17890 0
17891 17892 18210 0
17254 17893 18211 0
17250 18208 17548 0
18208 17250 16959 0
18212 18208 16959 0
17889 18209 17894 0
18213 18210 17892 0
18213 17892 18214 0
18214 17892 17552 0
17254 18211 17557 0
18211 18215 17557 0
17557 18215 17895 0
18215 17896 17895 0
18212 16959 18216 0
18217 17894 18209 0
17894 18217 17553 0
17552 18218 18214 0
17897 18218 17552 0
17897 18219 18218 0
17896 18220 17898 0
17897 17899 18219 0
17900 17898 18220 0
16959 17260 18216 0
17565 18221 17899 0
17900 18220 17901 0
17260 17268 18222 0
18223 17904 17553 0
17903 18224 17566 0
18222 17268 18225 0
18226 17905 17904 0
17565 17906 18221 0
17266 17907 17906 0
17566 18224 17568 0
17569 17568 18227 0
18227 17570 17569 0
18228 17570 18227 0
18225 17268 18229 0
17567 17905 18230 0
18230 17905 18226 0
17911 18231 17571 0
17571 18231 17908 0
18232 17909 18228 0
18228 17909 17570 0
18229 18233 18232 0
17268 17910 18233 0
18229 17268 18233 0
17567 18230 18234 0
17911 17912 17913 0
17911 17913 18235 0
18232 18236 16997 0
17909 18232 16997 0
17910 17914 18236 0
17910 18236 18233 0
18233 18236 18232 0
17567 18234 17280 0
17913 18237 18235 0
17915 18237 17913 0
17915 18238 18237 0
16997 18236 17914 0
17280 18234 17579 0
17915 17916 18238 0
18238 17916 17917 0
18238 17917 18239 0
17579 18234 17586 0
17586 18234 17919 0
17918 17920 18240 0
18240 17920 18241 0
17920 17921 18241 0
18241 17921 17922 0
17919 18234 17925 0
18234 18242 17925 0
18243 17928 17927 0
18243 17927 18244 0
18244 17927 17929 0
18242 17929 17925 0
18244 17929 18242 0
18245 17602 17605 0
17928 18246 17930 0
18246 17928 18243 0
17605 17301 18245 0
17933 17930 18246 0
17933 18246 18247 0
18248 17934 17935 0
17935 17936 18248 0
18246 18249 18247 0
18250 18246 18243 0
18249 18246 18250 0
18248 17936 18251 0
18251 17936 17937 0
18247 17939 17933 0
18249 17939 18247 0
18252 17939 18249 0
18250 18252 18249 0
17937 17940 18251 0
18251 17940 18253 0
18254 17939 18252 0
17938 17939 18254 0
18255 18256 18257 0
18257 18256 18258 0
18258 18256 18253 0
18258 18253 17940 0
17612 17309 17942 0
17942 17943 17612 0
18255 17944 17943 0
17946 17944 18255 0
17948 17946 18255 0
18257 17948 18255 0
17949 17948 18257 0
17949 18257 18259 0
18258 18260 18257 0
18260 18259 18257 0
17940 17945 18260 0
18258 17940 18260 0
18261 17610 17312 0
18260 17949 18259 0
17622 17949 18260 0
17945 17622 18260 0
18262 17938 18254 0
17619 18263 18264 0
17618 18263 17619 0
17611 17619 18264 0
17312 17611 18265 0
18265 17611 18264 0
18261 17312 18265 0
18262 17952 17938 0
17618 17625 18263 0
18263 17625 18266 0
17951 17952 18267 0
17955 18268 18269 0
17954 18268 17955 0
17628 17955 18270 0
17955 18269 18270 0
18266 17625 17628 0
18270 18266 17628 0
17951 18267 17957 0
18268 17954 18271 0
17958 17957 18267 0
17958 18267 18272 0
17964 18273 18274 0
17964 18274 18271 0
17964 18271 17959 0
17959 18271 17954 0
18272 18275 17961 0
17958 18272 17961 0
18267 18276 18272 0
18276 18275 18272 0
18277 18267 17952 0
18276 18267 18277 0
17963 18278 18279 0
17962 18278 17963 0
18273 17964 18279 0
18279 17964 17963 0
17965 17961 18275 0
17965 18275 18280 0
18278 17962 18281 0
18282 18276 18277 0
18283 18281 17966 0
17966 18281 17962 0
17966 17968 18284 0
18283 17966 18284 0
18276 18280 18275 0
17968 18285 18284 0
17968 17970 18285 0
17649 18286 17648 0
17648 18286 18287 0
17649 17333 18286 0
17333 17651 18286 0
18288 18283 18284 0
18289 18283 18288 0
18285 18290 18284 0
18290 18288 18284 0
17970 17977 18290 0
18285 17970 18290 0
17972 17971 18291 0
17971 18292 18291 0
17971 17973 18292 0
17647 18293 17973 0
18287 17647 17648 0
18293 17647 18287 0
18294 17975 17974 0
18294 18295 17975 0
18290 18296 18288 0
18280 18297 17967 0
17965 18280 17967 0
18276 18297 18280 0
18288 18298 18289 0
18296 18298 18288 0
18299 18298 18296 0
18299 18300 18301 0
18299 18296 18300 0
18296 18290 18300 0
17977 17978 18302 0
17977 18302 18290 0
18290 18302 18300 0
17978 17982 18303 0
18302 17978 18303 0
18303 17982 18304 0
18304 17982 17983 0
17980 18305 17983 0
18305 18304 17983 0
18306 18307 17993 0
18295 17993 18307 0
18295 18294 17993 0
18308 17993 18294 0
17974 17985 18308 0
18294 17974 18308 0
17981 18309 17986 0
17981 17987 18309 0
17987 17967 18297 0
18276 17987 18297 0
18300 18310 18301 0
18302 18310 18300 0
18303 18310 18302 0
17990 18311 18312 0
17989 18311 17990 0
17990 18312 18313 0
18313 18306 17992 0
18313 17992 17990 0
17991 17992 18306 0
17993 17991 18306 0
18308 17994 17993 0
17985 17994 18308 0
18309 18314 17986 0
17987 18314 18309 0
18315 18276 18282 0
17989 17996 18311 0
17999 18316 18000 0
18000 18316 18001 0
18317 18318 17664 0
18318 17999 17664 0
18318 18316 17999 0
18276 18314 17987 0
18004 18317 17664 0
18004 18319 18317 0
18319 18320 18317 0
18320 18321 18317 0
17986 18314 17689 0
18319 18005 18322 0
18004 18005 18319 0
18321 18320 18322 0
18322 18320 18319 0
18005 18007 18008 0
18005 18008 18322 0
18321 18322 18008 0
18276 18016 18314 0
18007 18009 18008 0
18323 18276 18315 0
18008 17678 18011 0
18276 18324 18016 0
18325 18324 18323 0
18324 18276 18323 0
18315 18325 18323 0
17689 18314 17690 0
18016 17690 18314 0
18012 18013 18326 0
18012 18326 18327 0
18017 18016 18328 0
18329 18328 18016 0
18324 18329 18016 0
18330 18329 18324 0
18331 18324 18325 0
18330 18324 18331 0
18332 18333 18020 0
18333 18013 18020 0
18326 18013 18333 0
18330 18334 18329 0
18335 18334 18330 0
18331 18335 18330 0
18019 18018 18336 0
18337 18020 18019 0
18332 18020 18337 0
18329 18338 18328 0
18334 18338 18329 0
18018 17703 18336 0
18336 17703 18339 0
18022 18340 18025 0
18340 18022 18341 0
18022 18023 18341 0
18023 18027 18341 0
18328 18342 17086 0
18017 18328 17086 0
18338 18342 18328 0
18028 18343 18339 0
18339 17703 18028 0
18340 18344 18032 0
18025 18340 18032 0
18341 18345 18340 0
18345 18344 18340 0
17086 18342 17092 0
17092 18342 18338 0
18343 18028 18029 0
18032 18344 18038 0
18345 18346 18347 0
18345 18341 18346 0
18027 18033 18346 0
18341 18027 18346 0
17092 18338 18045 0
18029 18034 18343 0
18343 18034 18348 0
18038 18349 18037 0
18039 18347 18346 0
18033 18039 18346 0
18348 18034 18040 0
18350 18348 18040 0
17719 18035 18351 0
18352 17719 18351 0
18351 18035 18043 0
18353 18043 18044 0
18349 18044 18037 0
18353 18044 18349 0
18347 18039 17729 0
18350 18040 18354 0
18046 18041 18355 0
18041 17719 18352 0
18041 18352 18355 0
18355 18352 18351 0
18043 18356 18351 0
18357 18356 18043 0
18358 18359 18045 0
18040 18047 18354 0
18354 18047 18360 0
18355 18361 18046 0
18361 18355 18351 0
18356 18361 18351 0
18362 18363 18048 0
18363 18364 18048 0
18364 17729 18048 0
18045 18365 17730 0
18366 18365 18359 0
18365 18045 18359 0
18050 18042 18046 0
18050 18046 18367 0
18367 18046 18368 0
18361 18368 18046 0
18051 18369 18362 0
18048 18051 18362 0
17730 18365 18052 0
18366 18052 18365 0
18370 18360 18047 0
18371 18367 18368 0
18051 18055 18369 0
18053 18052 18372 0
18057 18373 18370 0
18370 18047 18057 0
18371 18374 18367 0
18375 18055 18059 0
18376 18053 18372 0
18060 18053 18376 0
18060 18377 17414 0
18376 18377 18060 0
18057 18065 18373 0
18050 18367 18062 0
18378 17414 18377 0
18077 17414 18378 0
18379 18065 18070 0
18367 18380 18062 0
18374 18380 18367 0
18073 18381 18382 0
18072 18381 18073 0
18073 18382 18074 0
18078 18383 18379 0
18078 18379 18075 0
18075 18379 18070 0
18062 18380 18076 0
18079 18076 18380 0
18374 18079 18380 0
18374 18384 18079 0
18079 18384 17753 0
17752 17753 18384 0
17754 17752 18381 0
17752 18384 18381 0
18381 18072 17754 0
18078 18080 18383 0
18082 18385 18080 0
18080 18385 18383 0
18077 18386 17761 0
18082 18085 18387 0
18385 18082 18387 0
17761 18386 17765 0
18388 18089 18088 0
18387 18085 18089 0
18388 18387 18089 0
18386 17768 17765 0
18088 18087 18389 0
17768 18390 18092 0
18389 18087 18391 0
18095 18392 18391 0
18095 18391 18087 0
18093 18092 18393 0
18093 18393 18097 0
18394 18392 18095 0
18095 18094 18394 0
18395 17777 18097 0
18395 18097 18393 0
17777 18395 18100 0
18101 18396 18397 0
18394 18101 18397 0
18394 17783 18101 0
18094 17783 18394 0
18100 18395 18398 0
18100 18398 18098 0
18098 18398 18399 0
18396 18101 18399 0
18399 18101 18098 0
18105 18104 18400 0
18400 18104 17789 0
18105 18401 17443 0
17443 18401 18106 0
17790 18110 18402 0
18108 18106 18403 0
18106 18401 18403 0
18110 18404 18402 0
18109 18404 18110 0
18109 18405 18404 0
17801 18406 18111 0
17801 18112 18407 0
18406 17801 18407 0
18109 18113 18405 0
18405 18113 18114 0
18405 18114 18408 0
18112 18409 18407 0
18112 17454 18409 0
18410 18108 18403 0
18111 18406 17815 0
18407 17815 18406 0
18409 18411 18407 0
17454 17457 18411 0
18409 17454 18411 0
18108 18410 18117 0
17814 18412 18114 0
18407 18411 17815 0
17457 17462 18411 0
18410 18413 18117 0
18414 18415 18410 0
18415 18413 18410 0
17814 18118 18416 0
17462 18119 18417 0
17462 18417 18411 0
18117 18413 18120 0
18120 18413 18418 0
18418 18413 18415 0
18418 18415 18414 0
18416 18118 16874 0
18419 18416 16874 0
18124 17815 18411 0
18417 18121 18411 0
18417 18119 18121 0
18120 18420 18421 0
18120 18418 18420 0
18421 18422 18423 0
18420 18422 18421 0
18121 18124 18411 0
18121 18122 18424 0
18122 18123 18425 0
18424 18122 18425 0
18123 18125 18425 0
18127 18120 18421 0
18127 18421 18426 0
18426 18421 18423 0
18419 16874 17173 0
18424 18124 18121 0
18425 18427 18424 0
18125 18126 18427 0
18425 18125 18427 0
18127 18428 18130 0
18127 18426 18428 0
18130 18429 18430 0
18428 18429 18130 0
18429 18431 18430 0
18419 17173 18132 0
18419 18132 18432 0
18432 18132 18433 0
17468 18124 18128 0
18424 18434 18124 0
18434 18128 18124 0
18427 18434 18424 0
18126 18129 18427 0
18131 18130 18435 0
18435 18130 18430 0
18436 18430 18431 0
18435 18430 18436 0
18433 18132 18135 0
18137 18133 18128 0
18434 18137 18128 0
18137 18434 18437 0
18437 18434 18427 0
18129 18437 18427 0
18131 18435 18436 0
18135 17475 18438 0
18137 18437 18138 0
18129 18439 18437 0
18439 18138 18437 0
18134 18140 18439 0
18129 18134 18439 0
17475 18440 18438 0
18440 17475 17824 0
18439 18141 18138 0
18140 18141 18439 0
18131 18436 18142 0
18436 18441 18142 0
17824 17485 18440 0
18440 17485 18442 0
18142 18443 17489 0
18442 17485 17831 0
18444 18442 17831 0
18443 18144 17489 0
18445 18144 18443 0
18446 18444 17490 0
18444 17831 17490 0
18144 18445 17834 0
18445 18447 17834 0
18446 17490 18149 0
18448 18447 18449 0
18448 18145 18447 0
18145 17834 18447 0
18450 18149 18150 0
18451 18452 17848 0
18448 18449 18453 0
18145 18453 18148 0
18448 18453 18145 0
18454 18450 18151 0
18450 18150 18151 0
18452 18159 18455 0
17848 18452 18455 0
18155 17848 18455 0
18449 17848 18152 0
18153 18449 18152 0
18453 18449 18153 0
18148 18453 18153 0
18151 18154 18454 0
17847 18156 18456 0
17847 18456 18154 0
18455 18159 18158 0
17852 18455 18158 0
17854 18455 17852 0
18155 18455 17854 0
16612 18457 18458 0
16612 18458 18156 0
18157 18459 18160 0
18159 18459 18157 0
16612 18161 18457 0
18162 18457 18161 0
18460 18457 18162 0
18162 18461 18460 0
18459 18462 18160 0
18162 17504 18461 0
17504 18164 18461 0
18461 18164 18163 0
18160 18462 18165 0
18463 17509 18165 0
17509 18463 18166 0
18167 18464 17510 0
18464 18167 18168 0
18465 18466 18467 0
18171 18466 18465 0
18169 18464 18168 0
18166 18468 18170 0
18463 18468 18166 0
18469 18467 18470 0
18466 18173 18470 0
18466 18470 18467 0
18171 18173 18466 0
18171 18471 18172 0
18172 18471 18174 0
18472 18468 18463 0
18170 18468 18176 0
18192 18469 18470 0
18470 18173 18192 0
18174 18471 18473 0
18179 18174 18473 0
18181 18179 18474 0
18179 18473 18474 0
18474 18183 18181 0
18475 18183 18474 0
18476 18464 18169 0
18477 18469 18192 0
18478 18200 18185 0
18478 18185 18475 0
18475 18185 18183 0
18200 18479 18480 0
18478 18479 18200 0
18476 18169 17526 0
18192 18481 18477 0
18481 18192 18482 0
18185 18200 17874 0
18483 18480 18479 0
18483 18484 18480 0
18484 18200 18480 0
18196 18476 18190 0
18476 17526 18190 0
18485 18186 18187 0
18485 18187 18486 0
18192 18193 18482 0
18482 18193 18487 0
17880 18200 18484 0
18190 18195 18196 0
18195 17878 18196 0
18488 18485 18486 0
18489 18488 18486 0
18186 18485 18490 0
18485 18488 18490 0
18186 18490 18197 0
18193 18491 18487 0
18491 18193 18199 0
18484 17541 17880 0
17541 18492 18493 0
17541 18484 18492 0
18493 18494 17541 0
18489 18495 18496 0
18489 18496 18488 0
18488 18496 18490 0
18197 18496 18201 0
18490 18496 18197 0
18494 18497 17541 0
18498 18496 18499 0
18202 18496 18498 0
18202 18201 18496 0
18199 18203 18491 0
17541 18497 17885 0
17885 18205 18204 0
18500 18498 18499 0
18501 18500 18499 0
18202 18498 18502 0
18498 18500 18502 0
18202 18502 16947 0
18205 18503 17888 0
