#!ascii version written be Caret
20658 41312
7652 7974 7656 0
7973 7976 7655 0
7976 7977 7655 0
6267 7659 7664 0
7974 7975 7978 0
7979 7974 7978 0
7656 7974 7979 0
7656 7979 7660 0
7661 7660 7980 0
7980 7662 7661 0
7981 7662 7980 0
7977 7663 7655 0
7977 7982 7663 0
7662 7981 6297 0
7981 7983 6297 0
7658 6671 7984 0
7665 7982 7985 0
7663 7982 7665 0
7982 7986 7985 0
7987 7664 7666 0
7988 7334 7989 0
7983 7334 6297 0
7989 7334 7983 0
7984 7668 7990 0
6671 7669 7668 0
7984 6671 7668 0
7991 7343 7667 0
7991 7667 7338 0
7988 7991 7337 0
7991 7338 7337 0
7334 7988 7337 0
7992 7993 7990 0
7994 7993 7992 0
7668 7992 7990 0
7666 7995 7996 0
7666 7670 7995 0
7674 7673 7997 0
7343 7998 7673 0
7991 7998 7343 0
7994 7018 7999 0
7992 7018 7994 0
7668 7018 7992 0
7665 7985 7671 0
7670 7672 7995 0
7674 7997 7675 0
7018 7676 7999 0
7671 7985 7678 0
7986 8000 7985 0
8000 7678 7985 0
7996 8000 7986 0
7679 8000 7995 0
7995 8000 7996 0
7672 7679 7995 0
7681 7999 7676 0
8000 7683 7678 0
7684 7683 8000 0
7679 7684 8000 0
7682 7688 8001 0
7681 7682 8001 0
7685 8002 7024 0
8002 7690 7024 0
8003 8001 7688 0
7688 7691 8003 0
8003 7691 8004 0
7692 8005 8006 0
7692 8006 8007 0
7690 8005 7692 0
7691 8008 8004 0
7693 8008 7691 0
7695 8009 7693 0
7693 8009 8008 0
7695 8010 8009 0
8009 8010 8011 0
8012 7694 8013 0
8007 7694 7692 0
8013 7694 8007 0
8010 7695 7701 0
7704 8010 7701 0
8014 8011 8010 0
8014 8010 8015 0
8015 8010 7704 0
8015 8016 8017 0
8014 8015 8017 0
7698 7697 8018 0
8019 7700 8012 0
8019 8020 7700 0
8020 7364 7700 0
7694 8012 7700 0
7704 7701 7370 0
8021 8015 7704 0
8016 8015 8021 0
8022 8017 8016 0
8022 8016 8021 0
7707 7703 8018 0
7703 7698 8018 0
7704 7705 8021 0
7375 8021 7705 0
8022 8021 7375 0
7375 7709 8022 0
7373 7707 7706 0
7375 7040 7709 0
7708 7706 8023 0
8024 7708 8023 0
7708 8024 7712 0
8025 8026 8027 0
8027 8028 8029 0
8026 8028 8027 0
7711 7378 8030 0
7379 8030 7378 0
8031 8030 7379 0
7379 8032 8031 0
8033 8032 8034 0
7712 8024 7713 0
8025 8027 8035 0
8029 7715 8027 0
7715 8035 8027 0
8036 7715 8029 0
7715 8037 8038 0
8036 8037 7715 0
7379 7385 8032 0
7385 8039 8032 0
8034 8032 8040 0
8040 8032 8039 0
8040 8041 8034 0
7381 7714 8035 0
7715 7381 8035 0
7716 7382 7715 0
7716 7715 8042 0
8042 7715 8038 0
8043 8042 8038 0
8038 8044 8043 0
7387 8039 7385 0
8040 8039 7387 0
8040 7387 7386 0
8040 7386 8041 0
8041 7386 8045 0
7717 7716 8042 0
8043 7717 8042 0
7717 8043 8044 0
7717 8044 7718 0
8045 7386 8046 0
7389 7403 6357 0
7718 8047 7719 0
7719 8047 7720 0
7722 8047 8048 0
7722 7720 8047 0
7386 7399 8046 0
7722 8049 7724 0
8049 8050 7724 0
8051 7407 8050 0
7407 7724 8050 0
8051 8052 8053 0
8051 8053 8054 0
7407 8054 7726 0
8051 8054 7407 0
7402 7727 8055 0
7403 8056 7728 0
8057 8053 8052 0
7729 8054 8057 0
8054 8053 8057 0
7726 8054 7729 0
7728 8056 7731 0
8056 8058 7731 0
7733 8057 8052 0
7729 7733 7732 0
8057 7733 7729 0
8058 8059 7731 0
7733 8060 7410 0
7731 8059 7411 0
8061 7735 8060 0
7735 7410 8060 0
7411 8059 7737 0
7735 8061 7736 0
7736 7739 7082 0
7086 8062 7740 0
7738 8063 7741 0
8063 8064 7741 0
7743 6768 7739 0
7092 8062 7086 0
7742 8065 7419 0
7419 8065 7414 0
7092 7744 8066 0
7744 8067 8066 0
7741 8068 7745 0
7742 7746 8065 0
6775 7743 7747 0
8067 7744 7748 0
8069 8067 7748 0
7745 8068 7749 0
7755 7100 7747 0
8069 7748 8070 0
8071 8070 7431 0
7431 8070 7748 0
7756 8072 7760 0
7756 8073 8072 0
7756 7755 8073 0
7761 8074 8071 0
7431 7761 8071 0
7437 7759 8075 0
7437 8075 7438 0
7760 8072 8076 0
8077 8072 8073 0
8077 8076 8072 0
8078 8074 7764 0
7764 8074 7761 0
7439 7438 8079 0
7439 8079 8080 0
7439 8080 8081 0
7766 7439 8081 0
7763 7762 7771 0
7762 7128 7771 0
8082 7763 7771 0
8076 8083 7767 0
7760 8076 7767 0
8084 8083 8076 0
8077 8084 8076 0
7764 8084 8078 0
8078 8084 8077 0
7765 7766 8085 0
8086 7765 8085 0
7441 8086 8087 0
7441 7765 8086 0
8087 7768 7441 0
7768 8088 7769 0
8089 8088 7768 0
8088 8090 7769 0
7769 8090 7770 0
7767 8083 7772 0
7773 7772 8083 0
8084 7773 8083 0
7775 7773 8084 0
7764 7775 8084 0
8089 7768 8087 0
8088 8091 8090 0
7770 8090 8092 0
8090 8091 8092 0
7770 8093 7776 0
8092 8093 7770 0
7776 8093 7777 0
8094 7771 7780 0
8095 8096 8097 0
8095 8098 8099 0
8096 8095 8099 0
8091 8098 8092 0
7777 8100 7782 0
8093 8100 7777 0
7785 8094 7786 0
8094 7787 7786 0
8094 7780 7787 0
8101 8095 8097 0
8102 8101 8097 0
8092 8098 8103 0
8104 8092 8103 0
8093 8092 8104 0
8100 8093 8104 0
7782 8100 8105 0
7782 8105 7788 0
7788 8106 7784 0
8107 7789 7784 0
8101 8108 8095 0
8098 8095 8108 0
8105 8100 8104 0
8109 8105 8104 0
8109 7788 8105 0
8110 7784 8106 0
8107 7784 8110 0
8098 8108 8103 0
8111 8104 8103 0
8109 8104 8112 0
8113 8109 8112 0
7788 8109 8113 0
8111 8103 8114 0
8115 8111 8114 0
8104 8111 8115 0
8116 7791 7790 0
7792 8117 7463 0
7463 8117 8118 0
7791 8119 7467 0
8116 8119 7791 0
7792 8120 8117 0
7793 8120 7792 0
7468 8121 7793 0
7793 8121 8120 0
7469 8121 7468 0
7470 7467 8119 0
7470 8119 7794 0
7469 7795 8121 0
7796 8122 7795 0
7795 8122 8123 0
7794 8119 8124 0
7797 8125 7798 0
7798 8125 7473 0
7796 8126 8122 0
7476 8126 7796 0
8125 7797 8127 0
7473 8125 7477 0
7477 8125 7799 0
7800 8126 7476 0
7800 8128 8126 0
7800 7803 8128 0
7803 8129 8128 0
7804 8129 7803 0
7480 7805 8130 0
8130 7805 8131 0
8131 7805 7481 0
7481 7806 8131 0
7808 7807 8132 0
7804 7487 8129 0
7480 8133 8134 0
7480 8134 7153 0
8130 8133 7480 0
7806 7484 8135 0
7484 8136 8135 0
8137 8136 7809 0
7809 8136 7484 0
7809 7485 8138 0
8137 7809 8138 0
7810 8132 8139 0
7810 7808 8132 0
7487 8140 8129 0
7153 8134 7157 0
8136 8137 8141 0
8137 8138 8141 0
7485 8142 8138 0
8138 8142 8141 0
7811 7810 8143 0
7812 7811 8144 0
7812 7486 7811 0
7812 8145 7813 0
8144 8145 7812 0
7813 8145 7814 0
7487 7815 8140 0
7157 8134 7816 0
8142 8146 8141 0
8147 8146 8142 0
7158 8148 8147 0
7158 8147 8142 0
7158 8142 7485 0
7814 8145 7819 0
7820 8149 7815 0
7822 8150 7823 0
7821 8150 7822 0
7823 8150 7824 0
7158 8151 8148 0
8152 8144 8153 0
8145 8144 8152 0
7819 8152 7825 0
8145 8152 7819 0
8150 7821 8154 0
7824 8150 8155 0
8150 8154 8155 0
7824 8156 7827 0
8155 8156 7824 0
7827 8156 7828 0
7499 8157 7158 0
7158 8157 8158 0
7829 8157 7499 0
8153 8157 7507 0
8157 7829 7507 0
8152 8153 7507 0
7831 8152 7507 0
7825 8152 7831 0
8159 7182 7183 0
8155 8160 8156 0
7828 8156 8161 0
8156 8160 8161 0
8161 7832 7828 0
7183 8162 8159 0
7510 8162 7183 0
7833 7832 8163 0
7833 8164 7834 0
8163 8164 7833 0
7834 8164 7835 0
8164 8163 8165 0
8165 8163 8166 0
7835 8165 7838 0
8164 8165 7835 0
8167 7510 7836 0
8167 7836 8168 0
8168 7836 7839 0
8165 8166 8169 0
8170 8165 8169 0
8170 7838 8165 0
8170 8171 7838 0
8171 7841 7838 0
8172 8168 7839 0
7845 7841 8173 0
7841 8171 8173 0
7849 8172 7839 0
8174 7845 8173 0
8174 8175 7845 0
8175 7848 7845 0
8174 8176 8175 0
8177 8178 8179 0
8177 8180 8181 0
8179 8180 8177 0
8180 8182 8181 0
7850 7851 8183 0
7852 8184 7851 0
8185 8184 7853 0
7853 8184 7852 0
8185 7853 8186 0
7853 7847 8186 0
7847 7848 8186 0
8175 8187 7848 0
8187 8186 7848 0
8188 8175 8176 0
8187 8175 8188 0
7857 7854 8189 0
7857 8189 8181 0
8181 8189 8177 0
8181 8182 8190 0
8181 8190 7857 0
7857 8190 7855 0
8190 7858 7855 0
8191 7858 8190 0
8183 8192 7850 0
8185 8186 8193 0
7854 7859 8189 0
7861 7858 8194 0
8194 7858 8191 0
7850 8192 7863 0
8195 8193 8186 0
7861 8194 8196 0
7861 8196 7866 0
7866 8196 8197 0
8198 7863 8192 0
7863 8198 7531 0
7866 8197 8199 0
7544 7866 8199 0
8200 7862 7867 0
8200 7867 8201 0
8201 7867 6888 0
8198 8202 7531 0
8202 7547 7531 0
8203 8178 8177 0
8204 8178 8203 0
8189 8203 8177 0
8205 7544 8199 0
7875 8201 6888 0
7547 8202 7555 0
8202 8206 7555 0
7870 7877 8207 0
7870 8207 7878 0
8204 8203 8208 0
8203 8189 8208 0
7859 7881 8208 0
8189 7859 8208 0
8205 7874 7544 0
8205 7892 7874 0
7892 7560 7874 0
7555 8206 8209 0
7882 7555 8209 0
8209 7885 7882 0
8210 7885 8209 0
7878 8207 8211 0
8211 8207 8212 0
7879 7878 8213 0
7878 8211 8213 0
8208 7881 8214 0
8214 7881 7888 0
8215 7875 7890 0
7875 7876 7890 0
8210 8216 7885 0
8211 7900 8213 0
8213 7900 7879 0
7570 7892 8217 0
6539 7570 8218 0
7570 8217 8218 0
8215 7890 7893 0
8215 7893 8218 0
8218 7893 6539 0
7885 8216 7896 0
8219 8212 8207 0
7891 8220 7888 0
7891 7569 8220 0
7896 8221 7580 0
8207 7898 8222 0
7877 7898 8207 0
8219 8207 8223 0
8223 8224 8219 0
8225 8220 7569 0
8225 7569 7901 0
8221 7581 7580 0
8226 7581 8221 0
7898 7903 8222 0
8207 8222 8223 0
7581 8226 7906 0
8226 8227 7906 0
7903 7904 8228 0
7903 8228 8222 0
8228 7907 8222 0
7907 8224 8223 0
7907 8223 8222 0
7901 7905 8229 0
7906 8227 8230 0
7904 7907 8228 0
7899 8231 7908 0
8231 8232 7908 0
7909 8233 7905 0
7910 8233 7909 0
8230 7912 7906 0
8234 7908 8232 0
7910 8235 8233 0
7911 8235 7910 0
8236 8235 7911 0
8230 7913 7912 0
8237 7913 8230 0
8238 8239 8240 0
8241 8239 8242 0
8242 8243 8244 0
8241 8242 8244 0
8245 7913 8237 0
7590 7593 8246 0
8246 8247 7590 0
8234 8248 8249 0
8249 8248 8250 0
7908 8249 7914 0
8234 8249 7908 0
8251 8239 8238 0
8242 8239 8251 0
8243 8242 8252 0
8252 8242 8251 0
7919 7598 8253 0
7919 8253 8243 0
7919 8243 8252 0
8244 8243 8253 0
7916 8254 7598 0
7598 8254 8253 0
8245 7916 7913 0
8254 7916 8245 0
7593 7606 8255 0
8246 7593 8255 0
8250 8256 7920 0
7917 8249 7920 0
8249 8250 7920 0
7914 8249 7917 0
7924 8251 8238 0
7924 8238 7925 0
7603 8251 7924 0
8252 8251 7603 0
7919 8252 7603 0
7609 7922 5915 0
4985 5915 8257 0
8257 7602 4985 0
7925 8238 7926 0
8258 8246 8255 0
8258 8255 7929 0
8258 7929 8259 0
7606 7929 8255 0
7932 8260 8261 0
7931 8260 7932 0
5915 7922 7932 0
5915 7932 8262 0
8262 7932 8261 0
8263 7923 7926 0
8263 7926 8238 0
7923 8263 7933 0
8264 8259 7935 0
8259 7929 7935 0
7931 7939 8260 0
7933 8265 7940 0
8263 8265 7933 0
8264 7941 7945 0
7935 7941 8264 0
8266 8264 8267 0
8267 8264 7945 0
8267 7942 7943 0
8267 7943 8266 0
8266 7943 8268 0
8269 8268 7936 0
8268 7943 7936 0
8270 8271 7307 0
7939 7944 8260 0
7940 8272 7298 0
8265 8272 7940 0
8267 7945 7946 0
7942 8267 7946 0
8273 8274 8275 0
8273 8276 8277 0
8275 8276 8273 0
8270 8277 8276 0
7307 8277 8270 0
8271 7309 7307 0
7948 7309 8271 0
7948 8271 8278 0
8279 7948 8278 0
8280 7944 7947 0
8272 8281 7298 0
8282 8274 8273 0
8283 8274 8282 0
7307 8282 8277 0
8277 8282 8273 0
8279 7950 7948 0
8279 7955 7950 0
8279 8284 7955 0
8284 8285 7955 0
7951 8280 7947 0
7298 8281 8286 0
7298 8286 7952 0
7952 8286 8287 0
8287 7953 7952 0
8288 7953 8287 0
7306 8283 8282 0
7306 7957 8283 0
7957 8289 8283 0
7307 7306 8282 0
8290 7954 8285 0
8285 7954 7955 0
8288 7956 7953 0
8288 8291 7956 0
7640 8289 7957 0
7954 8292 7958 0
7954 8290 8292 0
7951 7959 8293 0
8293 7959 8294 0
7956 8291 7960 0
8291 8295 7960 0
7640 7647 8289 0
8292 8296 7961 0
7958 8292 7961 0
8290 8297 8292 0
8297 8296 8292 0
8298 8299 8300 0
8301 8298 8300 0
8299 8295 8300 0
8299 7963 8295 0
7963 7960 8295 0
8289 7647 8302 0
7964 7961 8296 0
7964 8296 8297 0
7964 8297 8303 0
8299 8298 7965 0
8299 7965 7963 0
7964 7970 7649 0
7964 8303 7970 0
7647 7658 8302 0
7965 8298 8304 0
7968 7965 8305 0
7965 8304 8305 0
8306 8307 8302 0
8308 8307 8306 0
7658 8306 8302 0
7647 6997 7658 0
7329 7970 7973 0
8309 8310 8311 0
7968 8305 7972 0
8308 8306 7658 0
7973 8312 7976 0
8313 6267 8314 0
8304 8315 8316 0
8305 8304 8317 0
8317 8304 8318 0
7972 8317 7975 0
8305 8317 7972 0
8312 8319 7977 0
7976 8312 7977 0
7664 8314 6267 0
8320 8310 8321 0
8311 8310 8320 0
8315 8322 8316 0
8304 8316 8323 0
8323 8318 8304 0
8324 8317 8318 0
7975 8317 8324 0
7975 8324 7978 0
7979 7978 8324 0
7660 7979 8325 0
7979 8324 8325 0
8326 7980 8325 0
7980 7660 8325 0
7980 8326 7981 0
7982 7977 8319 0
7982 8319 8312 0
8327 7982 8312 0
7664 7987 8314 0
8322 8311 8328 0
8328 8311 8320 0
8328 8316 8322 0
8329 8323 8316 0
8330 8323 8329 0
8318 8323 8330 0
7981 8331 7983 0
8326 8331 7981 0
7658 7984 8332 0
7986 7982 8333 0
8333 7982 8327 0
7987 8334 8327 0
8334 8333 8327 0
7987 7666 8334 0
8328 8320 8335 0
8336 8328 8335 0
8316 8328 8336 0
7988 8337 8338 0
8331 8337 7989 0
8337 7988 7989 0
7983 8331 7989 0
7990 7993 8332 0
7984 7990 8332 0
7996 7986 8333 0
8334 7996 8333 0
7666 7996 8334 0
8338 7991 7988 0
8339 7991 8338 0
7993 7994 8332 0
8332 7994 8340 0
7673 8341 7997 0
7998 8339 7673 0
7673 8339 8341 0
8339 7998 7991 0
8340 7994 7999 0
8342 8340 7999 0
7997 8343 7675 0
8343 7685 7675 0
7999 7681 8342 0
8002 7685 8343 0
8003 8344 8001 0
8345 8344 8003 0
8346 8006 8005 0
8346 8005 8347 0
8345 8003 8004 0
8347 8348 8349 0
8347 8349 8346 0
8346 8349 8350 0
8006 8350 8007 0
8346 8350 8006 0
8004 8008 8351 0
8008 8009 8351 0
8009 8352 8351 0
8011 8352 8009 0
8011 8353 8352 0
8012 8349 8348 0
8012 8348 8019 0
8019 8348 8354 0
8013 8349 8012 0
8350 8349 8013 0
8007 8350 8013 0
8011 8014 8353 0
8353 8014 8355 0
8014 8017 8355 0
8017 8356 8355 0
7697 8357 8018 0
7697 7364 8357 0
8020 8358 7364 0
8354 8020 8019 0
8358 8020 8354 0
8017 8022 8356 0
8359 7707 8018 0
8022 7709 8356 0
7706 7707 8359 0
8359 8023 7706 0
7709 7710 8360 0
7711 8360 7710 0
8361 8025 8362 0
8030 8031 8363 0
8031 8364 8363 0
8365 8362 8366 0
8025 8366 8362 0
8031 8032 8364 0
8033 8364 8032 0
8034 8367 8368 0
8034 8368 8033 0
8024 8369 7713 0
8035 8365 8366 0
8035 7714 8365 0
7714 8370 8365 0
8025 8035 8366 0
8029 8028 8036 0
8034 8041 8367 0
7714 8371 8370 0
8038 8037 8044 0
8372 8367 8041 0
7713 8369 7380 0
8369 7403 7380 0
8045 8372 8041 0
7380 7403 7389 0
8372 8045 8046 0
7718 8044 8047 0
8044 8048 8047 0
8046 7399 8373 0
8374 7722 8048 0
7722 8374 8049 0
7402 8055 8375 0
8373 7399 7402 0
8375 8373 7402 0
8049 8376 8050 0
8374 8376 8049 0
8376 8377 8051 0
8050 8376 8051 0
8051 8377 8052 0
8055 7727 8378 0
8369 8056 7403 0
8379 8056 8369 0
7730 8380 8381 0
8378 7727 7730 0
8381 8378 7730 0
8382 8058 8379 0
8058 8056 8379 0
8052 8383 7733 0
7730 6368 8380 0
8380 6368 7734 0
8384 8059 8382 0
8382 8059 8058 0
7404 7412 8385 0
7733 8383 8060 0
8383 8386 8060 0
8386 8061 8060 0
8387 8061 8386 0
8059 8388 7737 0
8061 8387 7736 0
7737 8388 8389 0
7738 7737 8389 0
8390 7738 8389 0
7736 8387 7739 0
8391 8063 8390 0
8063 7738 8390 0
7414 8392 7412 0
7412 8392 8385 0
8387 8393 7739 0
8394 7740 8062 0
8394 8395 7740 0
8395 8396 7740 0
8396 7417 7740 0
8391 8397 8398 0
8063 8398 8064 0
8391 8398 8063 0
8392 7414 8399 0
8400 7739 8393 0
8400 8401 7739 0
8401 7743 7739 0
8401 8394 8402 0
8400 8394 8401 0
8394 8066 8402 0
8394 7092 8066 0
8062 7092 8394 0
8403 8404 8397 0
7741 8398 8404 0
8398 8397 8404 0
8064 8398 7741 0
7414 8065 8399 0
8402 8405 8401 0
8066 8067 8405 0
8402 8066 8405 0
8406 8404 8403 0
7741 8406 8068 0
8404 8406 7741 0
8401 8407 7747 0
7743 8401 7747 0
8408 8407 8401 0
8069 8408 8405 0
8405 8408 8401 0
8067 8069 8405 0
8409 8068 8406 0
8409 7749 8068 0
8065 7746 7751 0
8065 7751 8410 0
7755 7747 8407 0
7755 8407 8411 0
8408 8412 8407 0
8412 8411 8407 0
8069 8070 8412 0
8408 8069 8412 0
7749 8409 7753 0
7751 8413 8414 0
7751 7105 8413 0
8070 8071 8415 0
8070 8415 8412 0
8412 8415 8411 0
7757 7753 8416 0
7758 7757 8417 0
7757 8416 8417 0
8417 7759 7758 0
7111 8418 8413 0
7763 8418 7111 0
8413 7105 7111 0
8411 8419 8073 0
7755 8411 8073 0
8415 8420 8411 0
8420 8419 8411 0
8071 8074 8420 0
8415 8071 8420 0
7759 8417 8075 0
7763 8082 8418 0
8418 8082 8421 0
8073 8419 8077 0
8078 8077 8419 0
8420 8078 8419 0
8074 8078 8420 0
7438 8422 8079 0
8421 8082 7771 0
8423 8421 7771 0
8081 8080 8424 0
8425 8081 8424 0
7766 8081 8425 0
7766 8425 8085 0
8085 8425 8426 0
8086 8085 8426 0
8086 8426 8087 0
7771 8427 8423 0
8087 8428 8429 0
8430 8089 8429 0
8089 8087 8429 0
8089 8431 8088 0
8430 8431 8089 0
8088 8431 8091 0
7771 8094 8432 0
8427 7771 8432 0
8096 8433 8434 0
8097 8096 8434 0
8096 8435 8433 0
8430 8435 8099 0
8435 8096 8099 0
8098 8430 8099 0
8431 8430 8098 0
8091 8431 8098 0
8097 8434 8102 0
7789 8107 8436 0
8107 8437 8436 0
8094 7785 7789 0
8094 7789 8432 0
8432 7789 8436 0
8438 8101 8102 0
8438 8102 8439 0
8439 8102 8434 0
8101 8438 8108 0
7788 8440 8106 0
8440 8441 8106 0
8441 8110 8106 0
8437 8107 8110 0
8441 8437 8110 0
8439 8442 8438 0
8438 8442 8443 0
8108 8443 8103 0
8438 8443 8108 0
8444 8112 8104 0
8113 8112 8445 0
7788 8113 8446 0
8446 8113 8445 0
8440 7788 8446 0
8447 8448 8442 0
8443 8442 8448 0
8103 8443 8449 0
8443 8448 8449 0
8449 8114 8103 0
8115 8114 8450 0
8444 8104 8115 0
8444 8115 8450 0
8451 8112 8444 0
8445 8112 8451 0
8449 8448 8452 0
8114 8449 8452 0
8453 8114 8452 0
7790 6459 8454 0
6837 8455 6459 0
6459 8455 8454 0
6837 7462 8455 0
8454 8116 7790 0
7462 8456 8457 0
7462 7463 8456 0
7463 8458 8456 0
8118 8458 7463 0
8118 8459 8458 0
8117 8459 8118 0
8460 8459 8117 0
8117 8120 8460 0
8120 8121 8460 0
8121 7795 8461 0
7795 8123 8461 0
8124 8119 8462 0
7794 8124 8462 0
7146 7794 8462 0
7146 8462 7797 0
8122 8463 8123 0
8464 8463 8122 0
8126 8464 8122 0
8127 8465 8466 0
8125 8127 8466 0
8126 8467 8464 0
8126 8468 8467 0
8469 7799 8125 0
7801 7799 8469 0
8126 8470 8468 0
8128 8470 8126 0
8129 8471 8128 0
8128 8471 8470 0
8131 7806 8472 0
7802 7801 8473 0
8474 7802 8473 0
7807 8474 8475 0
7807 7802 8474 0
7807 8476 8132 0
8475 8476 7807 0
8129 8477 8471 0
8133 8478 8479 0
8134 8133 8479 0
8130 8480 8133 0
8133 8480 8478 0
8131 8480 8130 0
8472 8480 8131 0
8481 8472 7806 0
8135 8481 7806 0
8475 8482 8476 0
8132 8476 8139 0
8476 8482 8139 0
8129 8483 8477 0
8140 8483 8129 0
8135 8484 8481 0
8136 8484 8135 0
8485 8484 8136 0
8136 8141 8485 0
8143 7810 8139 0
8143 8486 7811 0
7811 8486 8144 0
7815 8149 8140 0
8141 8146 8485 0
8144 8486 8487 0
8486 8143 8487 0
8148 8151 8488 0
8158 8489 8490 0
8491 8158 8490 0
8143 8490 8489 0
8143 8489 8487 0
8144 8487 8153 0
7820 8492 8149 0
7817 8493 7821 0
7821 8493 8154 0
8151 8494 8488 0
8495 8494 8151 0
8151 7158 8495 0
7158 8158 8495 0
8489 8158 8157 0
8487 8489 8157 0
8153 8487 8157 0
7820 8496 8492 0
7502 8496 7820 0
7182 8159 7502 0
7502 8159 8496 0
8497 7817 7816 0
8498 8497 7816 0
8493 7817 8497 0
8154 8493 8499 0
8493 8497 8499 0
8154 8500 8155 0
8499 8500 8154 0
8155 8500 8160 0
8497 8498 8501 0
8502 8497 8501 0
8499 8497 8502 0
8500 8499 8503 0
8160 8500 8504 0
8500 8503 8504 0
8160 8504 8161 0
8161 8505 7832 0
8504 8505 8161 0
8504 8503 8506 0
8505 8504 8506 0
8163 7832 8505 0
7510 8167 8162 0
8507 8167 8168 0
8166 8508 8169 0
8169 8508 8509 0
8171 8170 8509 0
8170 8169 8509 0
8168 8172 8507 0
8179 8510 8511 0
8512 8176 8174 0
8513 8176 8512 0
8179 8178 8510 0
8179 8511 8514 0
8179 8514 8180 0
7851 8515 8183 0
7851 8184 8515 0
8176 8513 8188 0
8190 8182 8516 0
8192 8517 8518 0
8192 8183 8517 0
8185 8519 8184 0
8185 8193 8519 0
8520 8186 8521 0
8186 8187 8521 0
8187 8522 8521 0
8187 8188 8522 0
8188 8513 8522 0
8516 8191 8190 0
8516 8523 8191 0
8523 8194 8191 0
7849 8524 8172 0
7862 8524 7849 0
8525 8192 8518 0
8193 8195 8526 0
8519 8193 8526 0
8521 8527 8520 0
8528 8527 8521 0
8529 8521 8522 0
8528 8521 8529 0
8194 8523 8530 0
8196 8194 8530 0
8197 8196 8530 0
7862 8200 8524 0
8524 8200 8531 0
8525 8198 8192 0
8195 8532 8526 0
8195 8186 8520 0
8195 8520 8532 0
8533 8532 8520 0
8533 8520 8527 0
8510 8178 8534 0
8199 8530 8535 0
8199 8197 8530 0
8531 8200 8201 0
8536 8531 8201 0
8198 8537 8202 0
8178 8204 8534 0
8535 8205 8199 0
8201 7875 8536 0
8202 8538 8206 0
8537 8538 8202 0
8205 8535 8539 0
8539 7892 8205 0
8536 7875 8540 0
8209 8538 8541 0
8209 8206 8538 0
8209 8541 8210 0
8208 8542 8534 0
8208 8534 8204 0
8208 8214 8542 0
7875 8215 8540 0
8541 8216 8210 0
8212 8543 8211 0
8544 8543 8212 0
8211 8543 7900 0
8542 8214 7888 0
7892 8539 8217 0
8218 8217 8545 0
8540 8215 8218 0
8545 8540 8218 0
8546 8547 8216 0
8547 7896 8216 0
8212 8219 8548 0
8212 8548 8544 0
7900 8543 7899 0
8225 8549 8220 0
7896 8547 8221 0
8219 8224 8548 0
8544 8548 8224 0
8221 8550 8226 0
8543 8544 8551 0
8543 8551 7899 0
8552 8225 7901 0
8226 8553 8227 0
8550 8553 8226 0
8224 7907 8247 0
7899 8551 8554 0
7899 8554 8231 0
7901 8229 8552 0
8552 8229 8555 0
8229 7905 8555 0
8555 7905 8233 0
8230 8553 8556 0
8230 8227 8553 0
8554 8551 8557 0
8231 8557 8232 0
8554 8557 8231 0
8233 8558 8555 0
8559 7911 8560 0
8560 7911 7588 0
6574 8560 7588 0
6574 7591 8560 0
8230 8556 8561 0
7907 7590 8247 0
8551 8544 8562 0
8234 8557 8562 0
8557 8551 8562 0
8232 8557 8234 0
8233 8235 8558 0
7911 8559 8236 0
8563 7591 7594 0
8239 8564 8565 0
8237 8561 8566 0
8230 8561 8237 0
8544 8224 8562 0
8234 8562 8248 0
8239 8241 8564 0
8244 8567 8241 0
8568 8245 8569 0
8566 8245 8237 0
8569 8245 8566 0
8562 8224 8570 0
8248 8570 8250 0
8562 8570 8248 0
8263 8238 8240 0
8244 8253 8567 0
8254 8567 8253 0
8568 8567 8254 0
8245 8568 8254 0
8224 8247 8571 0
8572 8224 8571 0
8256 8570 8572 0
8570 8224 8572 0
8250 8570 8256 0
8257 8573 7602 0
7602 8573 7594 0
8247 8246 8571 0
8572 8571 8269 0
8256 8269 7920 0
8572 8269 8256 0
5915 8574 8575 0
8573 8257 8575 0
8575 8257 5915 0
8258 8259 8576 0
8258 8571 8246 0
8258 8576 8571 0
7920 8269 7936 0
8577 8261 8260 0
8577 8578 8261 0
8578 8262 8261 0
8574 5915 8262 0
8578 8574 8262 0
8265 8263 8240 0
8259 8264 8576 0
8264 8579 8576 0
8579 8571 8576 0
8580 8571 8579 0
8269 8571 8580 0
7944 8577 8260 0
8264 8266 8579 0
8268 8579 8266 0
8580 8579 8268 0
8269 8580 8268 0
8270 8581 8582 0
8583 8271 8270 0
8278 8271 8583 0
8275 8584 8585 0
8274 8584 8275 0
8581 8276 8585 0
8585 8276 8275 0
8270 8276 8581 0
8278 8586 8279 0
8279 8586 8284 0
8586 8587 8284 0
7944 8280 8588 0
8589 8272 8265 0
8589 8590 8272 0
8590 8281 8272 0
8274 8283 8584 0
8584 8283 8289 0
8591 8284 8587 0
8285 8284 8591 0
8588 8280 8592 0
8281 8590 8593 0
8286 8281 8593 0
8286 8593 8287 0
8288 8287 8594 0
8594 8595 8288 0
8290 8285 8591 0
8280 8596 8592 0
7951 8596 8280 0
7951 8293 8596 0
8597 8598 8291 0
8291 8595 8597 0
8288 8595 8291 0
8295 8291 8598 0
8289 8307 8599 0
8290 8600 8297 0
8601 7959 6267 0
8602 8298 8301 0
8602 8301 8603 0
8301 8604 8603 0
8295 8604 8300 0
8604 8301 8300 0
8289 8302 8307 0
8297 8600 8303 0
8605 8303 8600 0
8603 8606 8602 0
8602 8606 8607 0
8298 8607 8304 0
8602 8607 8298 0
7970 8303 8605 0
8608 8609 8610 0
8609 8608 8611 0
8611 8608 8612 0
8613 8612 8614 0
8606 8613 8615 0
8615 8613 8614 0
8315 8607 8615 0
8607 8606 8615 0
8304 8607 8315 0
8616 8307 8617 0
7970 8618 7973 0
7973 8619 8620 0
8618 8619 7973 0
8612 8608 8621 0
8621 8608 8309 0
8322 8614 8621 0
8614 8612 8621 0
8315 8614 8322 0
8615 8614 8315 0
8622 8617 8308 0
8308 8617 8307 0
8312 7973 8623 0
8623 7973 8620 0
8624 8625 8626 0
8624 8626 8313 0
8313 8626 6267 0
8627 8608 8610 0
8309 8627 8310 0
8309 8608 8627 0
8621 8309 8311 0
8322 8621 8311 0
8308 8628 8622 0
8308 7658 8628 0
8312 8623 8629 0
8630 8631 8629 0
8625 8624 8631 0
8624 8632 8631 0
8313 8314 8632 0
8624 8313 8632 0
8321 8627 8610 0
8627 8321 8310 0
8633 8634 8622 0
8635 8634 8633 0
8628 8633 8622 0
8327 8312 8629 0
8327 8629 8636 0
8631 8637 8629 0
8637 8636 8629 0
8314 7987 8637 0
8314 8637 8632 0
8632 8637 8631 0
8638 8324 8318 0
8639 8325 8324 0
8628 8640 8633 0
7658 8332 8640 0
8628 7658 8640 0
7987 8327 8636 0
8637 7987 8636 0
8641 8330 8329 0
8638 8318 8330 0
8638 8330 8641 0
8639 8324 8642 0
8639 8326 8325 0
8639 8643 8326 0
8643 8331 8326 0
8635 8640 8644 0
8635 8633 8640 0
8320 8321 8645 0
8320 8645 8335 0
8336 8335 8646 0
8335 8645 8646 0
8316 8336 8647 0
8647 8336 8646 0
8648 8316 8647 0
8329 8316 8648 0
8338 8337 8649 0
8643 8337 8331 0
8649 8337 8643 0
8339 8338 8650 0
8338 8649 8650 0
8340 8644 8640 0
8651 8644 8340 0
8640 8332 8340 0
8341 8652 7997 0
8341 8339 8653 0
8652 8341 8653 0
8339 8650 8653 0
8342 8651 8340 0
8652 8654 8343 0
7997 8652 8343 0
8654 8652 8653 0
8650 8654 8653 0
8651 8342 8655 0
8343 8654 8656 0
8342 7681 8655 0
8343 8656 8002 0
7681 8001 8655 0
8655 8001 8657 0
8002 8658 7690 0
8656 8658 8002 0
8001 8659 8657 0
8344 8659 8001 0
8345 8660 8661 0
8345 8661 8344 0
8344 8661 8659 0
8660 8662 8663 0
8661 8660 8663 0
8005 8664 8347 0
8347 8664 8665 0
8658 8005 7690 0
8664 8005 8658 0
8345 8004 8660 0
8004 8666 8660 0
8666 8662 8660 0
8667 8663 8662 0
8667 8662 8666 0
8665 8348 8347 0
8668 8348 8665 0
8004 8351 8666 0
8667 8666 8351 0
8352 8667 8351 0
8669 8667 8352 0
8670 8669 8352 0
8352 8353 8670 0
8354 8348 8668 0
8356 8353 8355 0
8671 8353 8356 0
7364 8672 8357 0
8668 8672 8358 0
8672 7364 8358 0
8354 8668 8358 0
8356 7709 8673 0
7709 8360 8673 0
8674 8360 7711 0
7711 8675 8674 0
8676 8677 8678 0
8677 8361 8678 0
8679 8361 8677 0
8680 8681 8026 0
7711 8030 8675 0
8363 8675 8030 0
8363 8682 8675 0
8682 8683 8675 0
8684 8683 8682 0
8685 8686 8678 0
8361 8362 8685 0
8361 8685 8678 0
8679 8025 8361 0
8680 8025 8679 0
8026 8025 8680 0
8364 8682 8363 0
8684 8682 8364 0
8033 8684 8364 0
8368 8687 8033 0
8688 8689 8687 0
8368 8688 8687 0
8690 8686 8685 0
8362 8365 8690 0
8685 8362 8690 0
8368 8367 8688 0
8024 8023 8369 0
8365 8370 8690 0
8028 8691 8036 0
8036 8691 8037 0
8037 8691 8692 0
8693 8690 8370 0
8044 8037 8692 0
8370 8371 8693 0
8692 8694 8044 0
8374 8695 8376 0
8377 8695 8696 0
8695 8377 8376 0
7714 7404 8371 0
8377 8696 8052 0
8369 8697 8379 0
8371 7404 8698 0
8696 8699 8052 0
8700 8381 8380 0
8700 8701 8381 0
8701 8702 8381 0
8702 8378 8381 0
8379 8697 8382 0
8703 8383 8699 0
8699 8383 8052 0
8701 8700 8704 0
8380 7734 8700 0
8385 8698 7404 0
8700 8705 8704 0
8700 7734 8705 0
8703 8706 8386 0
8383 8703 8386 0
8707 8706 8703 0
8704 8708 8703 0
8708 8707 8703 0
7734 6757 8708 0
7734 8708 8705 0
8705 8708 8704 0
8709 8059 8384 0
8710 8698 8385 0
8387 8386 8706 0
8387 8706 8711 0
8707 8711 8706 0
8709 8388 8059 0
6757 7417 8708 0
8389 8712 8713 0
8389 8388 8712 0
8714 8712 8388 0
8389 8713 8390 0
8710 8385 8715 0
8711 8716 8387 0
8707 8716 8711 0
8708 8717 8707 0
8708 7417 8717 0
8712 8718 8397 0
8391 8712 8397 0
8713 8712 8391 0
8390 8713 8391 0
8385 8392 8715 0
8715 8392 8719 0
8387 8716 8393 0
8707 8720 8716 0
8395 8394 8720 0
8395 8720 8707 0
8396 8395 8707 0
8717 8396 8707 0
7417 8396 8717 0
8721 8722 8723 0
8724 8721 8723 0
8718 8722 8721 0
8719 8392 8399 0
8725 8719 8399 0
8393 8716 8400 0
8394 8400 8716 0
8720 8394 8716 0
8721 8726 8727 0
8721 8727 8718 0
8397 8727 8403 0
8718 8727 8397 0
8726 8403 8727 0
8726 8406 8403 0
8399 8065 8725 0
8406 8726 8728 0
8409 8406 8728 0
8409 8728 7753 0
8410 7751 8414 0
8413 8418 8729 0
7438 8075 8730 0
8730 8422 7438 0
8731 8729 8418 0
8421 8731 8418 0
8079 8422 8732 0
8421 8423 8733 0
8421 8733 8731 0
8079 8732 8734 0
8080 8079 8734 0
8080 8734 8424 0
8425 8424 8426 0
8423 8427 8733 0
8426 8735 8087 0
8087 8735 8428 0
8428 8736 8429 0
8737 8736 8428 0
8429 8736 8430 0
8733 8427 8432 0
8737 8738 8434 0
8737 8434 8433 0
8435 8737 8433 0
8736 8737 8435 0
8430 8736 8435 0
8739 8733 8432 0
8437 8740 8436 0
8741 8740 8437 0
8742 8436 8740 0
8742 8739 8436 0
8739 8432 8436 0
8434 8743 8439 0
8738 8743 8434 0
8441 8440 8744 0
8441 8741 8437 0
8441 8744 8741 0
8744 8745 8741 0
8745 8740 8741 0
8746 8747 8748 0
8747 8746 8749 0
8746 8750 8751 0
8749 8746 8751 0
8743 8751 8750 0
8743 8750 8442 0
8439 8743 8442 0
8752 8446 8445 0
8753 8746 8748 0
8754 8753 8748 0
8750 8746 8447 0
8750 8447 8442 0
8451 8444 8450 0
8440 8446 8752 0
8753 8755 8746 0
8447 8746 8755 0
8447 8756 8448 0
8448 8757 8452 0
8756 8757 8448 0
8757 8758 8452 0
8453 8452 8759 0
8452 8758 8759 0
8450 8114 8453 0
8450 8453 8760 0
8760 8453 8759 0
8451 8450 8760 0
8447 8755 8761 0
8756 8447 8761 0
8757 8756 8762 0
8762 8756 8761 0
8762 8761 8763 0
8764 8762 8763 0
8455 8765 8454 0
8455 7462 8457 0
8454 8766 8116 0
8455 8767 8765 0
8457 8767 8455 0
8456 8768 8457 0
8456 8769 8768 0
8458 8769 8456 0
8116 8770 8119 0
8458 8771 8769 0
8459 8771 8458 0
8460 8772 8459 0
8459 8772 8771 0
8121 8772 8460 0
8121 8461 8772 0
8123 8773 8461 0
8119 8770 8462 0
7797 8462 8774 0
8123 8775 8773 0
8123 8463 8775 0
8464 8776 8463 0
8463 8776 8775 0
8777 8466 8465 0
8464 8778 8776 0
8467 8778 8464 0
8468 8778 8467 0
8779 8466 8777 0
8125 8466 8779 0
8468 8780 8778 0
8468 8470 8780 0
8470 8781 8780 0
8471 8781 8470 0
8125 8779 8782 0
8469 8125 8782 0
7801 8469 8473 0
8473 8469 8783 0
8474 8473 8783 0
8474 8783 8475 0
8471 8784 8781 0
8471 8477 8784 0
8477 8785 8784 0
8475 8783 8786 0
8477 8483 8785 0
8478 8787 8788 0
8478 8788 8479 0
8479 8788 8134 0
8480 8787 8478 0
8472 8787 8480 0
8484 8789 8481 0
8790 8789 8485 0
8485 8789 8484 0
8475 8791 8482 0
8475 8786 8791 0
8786 8792 8791 0
8482 8793 8139 0
8791 8793 8482 0
8139 8793 8143 0
8149 8483 8140 0
8485 8794 8790 0
8485 8146 8794 0
8146 8795 8794 0
8148 8795 8147 0
8147 8795 8146 0
8792 8796 8791 0
8143 8793 8796 0
8793 8791 8796 0
8149 8797 8483 0
8134 8788 7816 0
8148 8488 8798 0
8799 8158 8491 0
8799 8491 8800 0
8796 8800 8490 0
8800 8491 8490 0
8143 8796 8490 0
8149 8492 8797 0
8488 8494 8798 0
8495 8801 8494 0
8801 8158 8799 0
8801 8495 8158 0
8802 8496 8159 0
7816 8803 8498 0
8162 8804 8802 0
8162 8802 8159 0
8498 8803 8805 0
8501 8498 8805 0
8502 8501 8805 0
8499 8806 8503 0
8499 8502 8807 0
8806 8499 8807 0
8503 8806 8506 0
8505 8506 8808 0
8505 8808 8809 0
8810 8505 8809 0
8505 8810 8163 0
8162 8811 8804 0
8811 8162 8507 0
8507 8162 8167 0
8163 8812 8166 0
8810 8812 8163 0
8508 8812 8813 0
8508 8166 8812 0
8508 8814 8509 0
8813 8814 8508 0
8509 8814 8171 0
8815 8816 8817 0
8816 8818 8817 0
8819 8820 8813 0
8813 8820 8814 0
8171 8820 8173 0
8814 8820 8171 0
8510 8821 8511 0
8510 8817 8821 0
8818 8821 8817 0
8822 8823 8172 0
8173 8820 8819 0
8173 8819 8174 0
8174 8819 8824 0
8825 8512 8824 0
8512 8174 8824 0
8512 8825 8513 0
8826 8815 8827 0
8511 8821 8828 0
8514 8511 8828 0
8180 8514 8829 0
8514 8828 8829 0
8829 8182 8180 0
8830 8182 8829 0
8184 8831 8515 0
8825 8832 8513 0
8826 8827 8833 0
8827 8815 8833 0
8817 8833 8815 0
8182 8830 8516 0
8830 8834 8516 0
8518 8517 8835 0
8835 8517 8836 0
8515 8517 8183 0
8836 8517 8515 0
8184 8837 8831 0
8519 8837 8184 0
8838 8522 8832 0
8832 8522 8513 0
8817 8839 8833 0
8834 8523 8516 0
8530 8523 8834 0
8524 8840 8822 0
8524 8822 8172 0
8519 8526 8837 0
8839 8817 8841 0
8840 8524 8531 0
8842 8525 8518 0
8527 8528 8843 0
8844 8527 8843 0
8528 8529 8843 0
8817 8845 8841 0
8510 8534 8845 0
8817 8510 8845 0
8535 8530 8846 0
8847 8840 8531 0
8531 8536 8847 0
8848 8525 8842 0
8525 8849 8198 0
8525 8848 8849 0
8198 8849 8537 0
8850 8851 8526 0
8532 8850 8526 0
8850 8532 8852 0
8532 8533 8852 0
8533 8527 8844 0
8533 8844 8852 0
8852 8844 8843 0
8845 8853 8841 0
8848 8842 8854 0
8849 8848 8854 0
8855 8849 8854 0
8855 8537 8849 0
8855 8856 8537 0
8856 8538 8537 0
8857 8851 8850 0
8858 8851 8857 0
8852 8859 8850 0
8859 8857 8850 0
8860 8859 8843 0
8859 8852 8843 0
8539 8535 8846 0
8861 8847 8862 0
8536 8540 8862 0
8847 8536 8862 0
8541 8538 8856 0
8858 8857 8863 0
8857 8859 8863 0
8864 8863 8859 0
8865 8859 8860 0
8864 8859 8865 0
8534 8542 8845 0
8845 8542 8866 0
8539 8867 8868 0
8861 8868 8867 0
8861 8862 8868 0
8862 8869 8868 0
8862 8540 8869 0
8541 8870 8216 0
8871 8863 8864 0
8865 8871 8864 0
8866 8542 8872 0
8542 7888 8872 0
8539 8868 8217 0
8545 8217 8868 0
8869 8545 8868 0
8540 8545 8869 0
8216 8870 8873 0
8216 8873 8546 0
8546 8873 8874 0
8874 8547 8546 0
8875 8547 8874 0
7888 8876 8872 0
7888 8220 8876 0
8220 8549 8876 0
8552 8549 8225 0
8547 8875 8221 0
8550 8877 8553 0
8552 8558 8878 0
8555 8558 8552 0
8879 8880 8881 0
8879 8882 8883 0
8880 8879 8883 0
8883 8882 8884 0
8556 8553 8877 0
8885 8556 8877 0
8559 8560 8886 0
8887 8879 8881 0
8888 8887 8881 0
8239 8882 8887 0
8882 8879 8887 0
8882 8239 8565 0
8882 8565 8884 0
8884 8565 8889 0
8561 8556 8890 0
8890 8556 8885 0
8235 8891 8558 0
8235 8236 8891 0
8559 8892 8236 0
8892 8559 8886 0
8240 8887 8888 0
8239 8887 8240 0
8565 8893 8889 0
8564 8893 8565 0
8566 8561 8890 0
8894 8563 7594 0
8564 8241 8895 0
8241 8567 8895 0
8568 8896 8567 0
8567 8896 8895 0
8566 8896 8569 0
8896 8568 8569 0
7594 8573 8894 0
8894 8573 8897 0
8898 8897 8573 0
8899 8900 8240 0
8575 8901 8898 0
8574 8901 8575 0
8898 8573 8575 0
8900 8902 8240 0
8578 8577 8574 0
8574 8577 8901 0
8240 8902 8265 0
8270 8582 8903 0
8583 8270 8903 0
8904 8278 8583 0
8278 8904 8586 0
8902 8905 8265 0
8906 8582 8581 0
8588 8577 7944 0
8585 8906 8581 0
8585 8584 8906 0
8584 8289 8906 0
8586 8907 8587 0
8589 8265 8908 0
8907 8591 8587 0
8909 8910 8592 0
8910 8588 8592 0
8590 8589 8911 0
8590 8911 8593 0
8593 8911 8287 0
8594 8287 8912 0
8287 8911 8912 0
8912 8595 8594 0
8913 8595 8912 0
8290 8591 8914 0
8592 8596 8909 0
8596 8293 8909 0
8909 8293 8294 0
8913 8597 8595 0
8915 8597 8913 0
8294 7959 8916 0
8917 8918 8919 0
8598 8919 8918 0
8598 8918 8920 0
8598 8920 8295 0
8307 8921 8599 0
8600 8290 8605 0
8601 8916 7959 0
8917 8922 8603 0
8918 8917 8603 0
8604 8918 8603 0
8920 8918 8604 0
8295 8920 8604 0
8923 8921 8616 0
8616 8921 8307 0
8924 8612 8925 0
8926 8925 8612 0
8926 8612 8613 0
8606 8926 8613 0
8922 8926 8606 0
8603 8922 8606 0
7970 8605 8927 0
8601 6267 8928 0
8609 8929 8610 0
8929 8611 8924 0
8929 8609 8611 0
8612 8924 8611 0
8930 8931 8932 0
8930 8933 8931 0
8933 8923 8931 0
8616 8617 8931 0
8923 8616 8931 0
7970 8927 8934 0
7970 8934 8618 0
8618 8934 8619 0
8620 8619 8935 0
6267 8626 8928 0
8928 8626 8936 0
8622 8932 8931 0
8622 8634 8932 0
8634 8937 8932 0
8617 8622 8931 0
8935 8938 8623 0
8620 8935 8623 0
8630 8938 8935 0
8939 8940 8625 0
8936 8626 8625 0
8940 8936 8625 0
8623 8938 8629 0
8630 8629 8938 0
8939 8631 8630 0
8625 8631 8939 0
8634 8635 8937 0
8638 8642 8324 0
8941 8635 8644 0
8942 8645 8321 0
8942 8321 8943 0
8942 8944 8645 0
8944 8646 8645 0
8945 8647 8646 0
8647 8945 8648 0
8641 8329 8648 0
8641 8648 8946 0
8638 8641 8946 0
8639 8642 8947 0
8947 8642 8948 0
8649 8639 8947 0
8643 8639 8649 0
8949 8942 8943 0
8950 8949 8943 0
8951 8944 8949 0
8949 8944 8942 0
8646 8944 8951 0
8952 8646 8951 0
8947 8948 8953 0
8954 8947 8953 0
8954 8649 8947 0
8644 8651 8941 0
8949 8950 8955 0
8951 8949 8955 0
8650 8956 8957 0
8650 8649 8956 0
8941 8651 8958 0
8654 8650 8957 0
8651 8655 8958 0
8958 8655 8959 0
8656 8654 8957 0
8656 8957 8960 0
8961 8960 8957 0
8962 8957 8956 0
8961 8957 8962 0
8963 8959 8655 0
8961 8964 8960 0
8965 8964 8961 0
8962 8965 8961 0
8963 8657 8966 0
8655 8657 8963 0
8967 8963 8966 0
8663 8967 8966 0
8968 8969 8960 0
8969 8656 8960 0
8964 8968 8960 0
8657 8659 8966 0
8661 8966 8659 0
8663 8966 8661 0
8970 8971 8663 0
8972 8971 8970 0
8665 8664 8973 0
8656 8664 8658 0
8656 8974 8664 0
8969 8974 8656 0
8968 8974 8969 0
8663 8667 8970 0
8972 8970 8667 0
8669 8972 8667 0
8975 8972 8669 0
8975 8669 8976 0
8669 8670 8976 0
8670 8977 8976 0
8668 8973 8978 0
8665 8973 8668 0
8670 8353 8977 0
8671 8977 8353 0
8671 8356 8673 0
8979 8672 8668 0
8018 8980 8359 0
8980 8018 8357 0
8981 8982 8983 0
8981 8984 8676 0
8983 8984 8981 0
8673 8360 8985 0
8360 8674 8985 0
8674 8986 8985 0
8987 8988 8989 0
8990 8982 8981 0
8991 8982 8990 0
8676 8990 8981 0
8676 8992 8677 0
8674 8675 8986 0
8683 8986 8675 0
8987 8986 8683 0
8683 8993 8987 0
8988 8987 8994 0
8994 8987 8993 0
8989 8988 8994 0
8989 8994 8995 0
8023 8996 8997 0
8996 8023 8359 0
8678 8991 8990 0
8678 8686 8991 0
8676 8678 8990 0
8677 8992 8679 0
8680 8679 8992 0
8998 8680 8992 0
8683 8684 8993 0
8033 8993 8684 0
8994 8993 8033 0
8687 8994 8033 0
8994 8687 8689 0
8994 8689 8995 0
8689 8688 8995 0
8997 8369 8023 0
8686 8690 8991 0
8028 8026 8999 0
8991 8690 9000 0
8028 8999 8691 0
8690 9001 9000 0
8693 9001 8690 0
8688 8367 9002 0
8692 8691 9003 0
9003 8694 8692 0
8367 8372 9002 0
8693 8371 9004 0
8694 9003 8044 0
9003 9005 8044 0
9002 8372 8046 0
8044 9005 8048 0
8046 8373 9006 0
8048 9005 8374 0
9007 8375 8055 0
9007 9008 8375 0
9008 9009 8375 0
9009 8373 8375 0
8374 9005 8695 0
9005 9010 8695 0
8055 8378 9011 0
9007 8055 9011 0
8695 9012 8696 0
8695 9010 9012 0
9013 9012 9010 0
9011 9014 9015 0
9016 9014 9011 0
9011 8378 9016 0
9017 8371 8698 0
9012 9018 8699 0
8696 9012 8699 0
9013 9018 9012 0
9015 9019 9013 0
9019 9018 9013 0
8701 9019 9014 0
9014 9019 9015 0
8702 8701 9014 0
9016 8702 9014 0
8378 8702 9016 0
8697 9020 8382 0
8699 9018 8703 0
8704 8703 9018 0
9019 8704 9018 0
8701 8704 9019 0
8382 9020 8384 0
9021 8388 8709 0
9022 8388 9021 0
9023 8712 8714 0
9023 8714 9024 0
9022 8714 8388 0
9024 8714 9022 0
9025 8710 8715 0
8722 9026 9027 0
8722 9027 8723 0
8718 9026 8722 0
9023 9026 8718 0
8712 9023 8718 0
8725 9028 8719 0
8719 9028 8715 0
9029 8721 8724 0
9029 8724 9030 0
8721 9029 8726 0
9028 8725 9031 0
9032 9029 9030 0
9033 9032 9030 0
8726 9029 9034 0
9029 9032 9034 0
9032 9033 9035 0
9034 9032 9035 0
9036 9034 9035 0
8728 9034 9036 0
8728 8726 9034 0
8725 8065 9031 0
9031 8065 9037 0
9038 9039 8728 0
9039 7753 8728 0
8413 9040 8414 0
8410 8414 9041 0
9037 8065 8410 0
9041 9037 8410 0
7753 9039 8416 0
8413 8729 9040 0
9042 8422 8730 0
8729 8731 9040 0
8422 9042 8732 0
9042 9043 8732 0
8733 9044 8731 0
8732 9043 9045 0
8734 8732 9045 0
8424 8734 8426 0
8734 9045 8426 0
9046 9044 8733 0
9047 8428 9048 0
8428 8735 9048 0
8428 9047 8737 0
8733 9049 9046 0
8737 9047 8738 0
8733 8739 9050 0
9049 8733 9050 0
8740 8745 9051 0
8740 9051 9052 0
8740 9052 8742 0
8747 9053 8748 0
8747 8749 9054 0
9053 8747 9054 0
9055 9054 8749 0
9055 8749 9056 0
9056 8749 8751 0
9057 8751 8743 0
9056 8751 9057 0
9058 9059 9060 0
9058 9061 9062 0
9059 9058 9062 0
9053 9062 8754 0
9053 8754 8748 0
8754 9062 9061 0
9054 9062 9053 0
8744 8440 9063 0
8745 8744 9063 0
9051 8745 9063 0
8754 9064 8753 0
8754 9061 9064 0
8753 9064 8755 0
8758 8757 9065 0
9065 9066 8758 0
9066 8759 8758 0
9067 8760 8759 0
8451 8760 9068 0
8760 9067 9068 0
8445 8451 9069 0
8752 8445 9069 0
9070 8752 9069 0
9071 9058 9060 0
9072 9071 9060 0
9061 9058 9071 0
9064 9061 9073 0
9073 9061 9071 0
8755 9073 8761 0
9064 9073 8755 0
9065 8762 9074 0
8757 8762 9065 0
9074 9066 9065 0
9073 9071 9075 0
8761 9073 9075 0
8761 9075 8763 0
9074 8762 8764 0
9074 8764 9076 0
9066 9074 9076 0
9077 8454 8765 0
9077 8766 8454 0
9078 9077 8765 0
8765 8767 9078 0
8767 9079 9078 0
8457 9080 8767 0
8767 9080 9079 0
8768 9081 9080 0
8768 9080 8457 0
8768 9082 9081 0
8769 9082 8768 0
9083 9082 8769 0
9084 9083 8769 0
8771 9084 8769 0
8771 9085 9084 0
8772 9085 8771 0
8461 9085 8772 0
8773 9086 8461 0
8770 9087 9088 0
8770 9088 8462 0
8462 9088 9089 0
8462 9089 8774 0
8773 9090 9086 0
8775 9090 8773 0
8775 8776 9090 0
7797 8774 9091 0
7797 9091 8127 0
8127 9091 9092 0
8465 8127 9092 0
8465 9092 8777 0
8776 8778 9093 0
8779 8777 9094 0
8777 9095 9094 0
8778 9096 9097 0
8780 9096 8778 0
8781 9098 8780 0
8780 9098 9096 0
8779 9094 9099 0
8782 8779 9099 0
9100 8469 9099 0
8469 8782 9099 0
8469 9101 8783 0
9100 9101 8469 0
8781 9102 9098 0
8784 9102 8781 0
9103 9102 8785 0
8785 9102 8784 0
8783 9104 8786 0
8783 9101 9104 0
9101 9100 9104 0
8483 9103 8785 0
8788 8787 9105 0
8472 9106 8787 0
8787 9106 9105 0
8472 9107 9106 0
8481 8789 8790 0
9108 8481 8790 0
9100 9109 9104 0
8786 9109 8792 0
9104 9109 8786 0
8483 9110 9103 0
8483 9111 9110 0
8788 9112 9113 0
8472 9114 9107 0
8481 9114 8472 0
9115 9114 8481 0
9108 9115 8481 0
9108 8790 9116 0
8790 8794 9117 0
8790 9117 9116 0
8794 8795 9118 0
9117 8794 9118 0
8795 8148 9118 0
8792 9109 9119 0
9109 9120 9119 0
8792 9119 8796 0
8483 9121 9111 0
8797 9121 8483 0
9118 8798 9117 0
8798 9116 9117 0
9118 8148 8798 0
9120 8801 8799 0
8800 9120 8799 0
9119 9120 8800 0
8796 9119 8800 0
9122 8492 8496 0
8788 9113 7816 0
8798 9123 9116 0
9124 9123 8798 0
8798 8494 9124 0
8494 9125 9124 0
8494 8801 9125 0
9122 8496 8802 0
7816 9113 8803 0
8805 8803 9126 0
8805 9126 9127 0
8502 8805 9127 0
8502 9127 8807 0
8808 8506 9128 0
9129 8808 9128 0
8808 8810 8809 0
9129 8810 8808 0
8804 8811 9130 0
9129 8812 8810 0
9131 9132 8816 0
9133 9134 9135 0
8815 9134 9136 0
9136 9134 9133 0
9131 8815 9136 0
8816 8815 9131 0
8816 9132 9137 0
8816 9137 8818 0
8507 8172 8823 0
8819 8813 9138 0
8821 8818 9137 0
8828 8821 9137 0
8819 9139 9140 0
8819 9138 9139 0
8819 8825 8824 0
9140 8825 8819 0
9141 9142 9143 0
9134 8826 9135 0
9134 8815 8826 0
8829 8828 8830 0
9144 8515 8831 0
9140 9145 8825 0
8825 9145 8832 0
9146 9142 9141 0
9143 9147 9141 0
9135 9147 9143 0
8826 8833 9148 0
8834 8830 8828 0
9149 9150 8822 0
8835 9151 9152 0
8518 8835 9152 0
8836 9144 8835 0
8835 9144 9151 0
9144 8836 8515 0
9153 9144 8831 0
8837 9154 9153 0
8837 9153 8831 0
9155 8832 9145 0
9155 9156 8832 0
9156 8838 8832 0
9146 9141 9157 0
9147 9157 9141 0
8826 9147 9135 0
9148 9158 8826 0
8833 8839 9158 0
9148 8833 9158 0
8840 9149 8822 0
9159 9154 8837 0
8522 8838 9160 0
9160 8838 9156 0
9161 9162 9157 0
9147 9161 9157 0
8826 9163 9147 0
9158 9163 8826 0
8839 9164 9158 0
8839 8841 9164 0
8530 8834 8846 0
9165 9149 8840 0
8518 9152 8842 0
9152 9166 8842 0
9167 8529 8522 0
9164 9163 9158 0
8840 8847 9165 0
9168 8837 8526 0
8843 9169 9170 0
8843 8529 9169 0
8529 9167 9169 0
9164 9171 9163 0
8841 8853 9171 0
9164 8841 9171 0
8854 8842 9172 0
8855 8854 9172 0
8855 9172 8856 0
9168 8526 8851 0
8860 8843 9170 0
8853 9173 9171 0
9171 9173 9163 0
8853 8845 9173 0
9174 8539 8846 0
8847 8861 9165 0
9165 8861 9175 0
9176 8851 8858 0
9170 9177 8860 0
9177 8865 8860 0
9178 9170 9169 0
9177 9170 9178 0
9179 9163 9180 0
9163 9173 9180 0
8845 8866 9180 0
9173 8845 9180 0
8867 8539 9181 0
8539 9174 9181 0
9175 8861 8867 0
9181 9175 8867 0
8541 8856 8870 0
9182 9183 9176 0
8863 9182 9176 0
8863 9176 8858 0
9182 8863 8871 0
8871 8865 9177 0
9180 8876 9179 0
8866 8876 9180 0
8866 8872 8876 0
8873 8870 9184 0
8874 9184 9185 0
8874 8873 9184 0
9183 9182 9186 0
9182 8871 9186 0
9186 8871 9177 0
8874 9187 8875 0
9187 8221 8875 0
8221 9187 8550 0
8552 9188 8549 0
8878 9188 8552 0
8878 9189 9188 0
8550 9187 8877 0
8878 8558 9189 0
9189 8558 9190 0
9190 8558 9191 0
8881 8880 9192 0
9193 8883 8884 0
9194 8877 9187 0
8877 9194 8885 0
8560 9195 8886 0
8886 9195 9196 0
8560 7591 9195 0
8881 9192 8888 0
9197 9193 8889 0
9193 8884 8889 0
8885 9198 8890 0
9194 9198 8885 0
8558 8891 9191 0
8236 9199 8891 0
8886 9199 8892 0
9199 8236 8892 0
9200 7591 8563 0
9201 9200 8563 0
8888 9202 8240 0
8889 8893 9197 0
9197 8893 9203 0
8893 8564 9203 0
8564 9204 9205 0
8564 9205 9203 0
9198 9205 9204 0
9198 9204 9206 0
8890 9206 8566 0
9198 9206 8890 0
9207 9201 8563 0
8563 8894 9207 0
9202 8899 8240 0
9202 9208 8899 0
8564 8895 9204 0
8896 9204 8895 0
9206 9204 8896 0
8566 9206 8896 0
8894 8897 9209 0
9207 8894 9209 0
9208 9210 8899 0
9211 9212 9213 0
9214 9212 9211 0
8897 8898 9209 0
9214 9211 9215 0
8903 9215 9211 0
9213 9216 9211 0
9216 8903 9211 0
9212 9216 9213 0
9212 9217 9216 0
8898 8901 9218 0
8898 9218 9209 0
9219 8902 8900 0
9216 8583 8903 0
9216 9217 8583 0
8583 9217 8904 0
8904 9217 9220 0
9221 9218 8901 0
8577 9221 8901 0
9222 9223 9215 0
8903 8582 9222 0
8903 9222 9215 0
8586 8904 9220 0
9224 8905 9219 0
9219 8905 8902 0
9222 8582 8906 0
8586 9220 9225 0
8577 8588 9226 0
9227 8265 8905 0
8906 8289 9228 0
9225 9229 8907 0
8586 9225 8907 0
9230 9225 9220 0
9230 9231 9225 0
9231 9229 9225 0
8588 8910 9226 0
9226 8910 9232 0
8265 9227 8908 0
8907 9229 8591 0
8914 8591 9229 0
8914 9229 9231 0
9233 9231 9230 0
8914 9231 9233 0
8910 9234 9232 0
8909 9234 8910 0
8589 9235 8911 0
8912 8911 9235 0
8912 9235 9236 0
9237 8913 9238 0
9236 9238 8912 0
8912 9238 8913 0
9228 8289 8599 0
8290 8914 9233 0
9234 8909 8294 0
9239 8598 8597 0
9239 8597 9237 0
9237 8597 8915 0
8913 9237 8915 0
8290 9233 9240 0
8290 9241 9242 0
9240 9241 8290 0
9241 9243 9242 0
8294 8916 9234 0
9244 8917 9245 0
9239 9245 8919 0
9245 8917 8919 0
8598 9239 8919 0
9246 9247 9248 0
9247 9249 9248 0
8599 8921 9249 0
9247 8599 9249 0
9250 8605 8290 0
9250 8290 9242 0
9251 9242 9243 0
9250 9242 9251 0
9252 8926 9253 0
9244 9253 8922 0
9253 8926 8922 0
8917 9244 8922 0
9254 9246 9248 0
8921 8923 9254 0
8921 9254 9249 0
9249 9254 9248 0
8605 9251 9255 0
8605 9250 9251 0
8925 9256 8924 0
9252 9256 8925 0
8926 9252 8925 0
9254 8933 8930 0
8923 8933 9254 0
8605 9255 8927 0
9257 9258 8928 0
8928 9258 8601 0
8930 8932 9259 0
8935 8619 9260 0
8619 8934 9260 0
9257 9261 9262 0
8928 8936 9261 0
9257 8928 9261 0
9263 9264 8930 0
9265 9264 9263 0
9259 9266 8930 0
9266 9263 8930 0
8932 8937 9266 0
9259 8932 9266 0
8935 9260 8630 0
8939 8630 9260 0
9262 8939 9260 0
8940 8939 9262 0
9261 8940 9262 0
8936 8940 9261 0
9263 9267 9265 0
9266 9267 9263 0
9268 9267 9266 0
9268 9266 8937 0
9268 8937 9269 0
8937 8635 9269 0
8941 9270 8635 0
8321 9271 8943 0
8648 8945 9272 0
8946 8648 9272 0
9273 8950 9271 0
9271 8950 8943 0
8952 8951 9274 0
8951 9273 9274 0
8945 8646 8952 0
8638 8946 9275 0
9276 8638 9275 0
8642 8638 9276 0
8948 8642 9276 0
8948 9276 8953 0
8953 9276 9277 0
8954 8953 9277 0
8950 9273 8955 0
8951 8955 9273 0
9278 8649 8954 0
9278 8956 8649 0
9279 8958 9280 0
9279 8941 8958 0
9280 8959 9281 0
8958 8959 9280 0
9282 9279 9280 0
9282 9280 9281 0
9282 9283 9284 0
8956 9278 8962 0
9278 9285 8962 0
8959 8963 9281 0
8967 9281 8963 0
9282 9281 8967 0
8967 9286 9282 0
9286 9283 9282 0
9284 9283 9287 0
9287 9283 9286 0
9284 9287 9288 0
8965 9289 8964 0
8964 9289 9290 0
9285 8965 8962 0
9289 8965 9285 0
8967 8663 9286 0
8971 9286 8663 0
9287 9286 8971 0
8971 9288 9287 0
9290 8968 8964 0
9291 8968 9290 0
8971 8972 9288 0
8975 9288 8972 0
9292 9293 8975 0
9294 9293 9292 0
8978 8973 9295 0
8664 8974 8973 0
8968 9296 8974 0
9296 8968 9291 0
8975 8976 9292 0
8977 9292 8976 0
9294 9292 8977 0
8671 9294 8977 0
8978 9295 8668 0
9297 8357 9298 0
8357 8672 9298 0
9299 9300 8673 0
9301 9300 9299 0
8980 9302 9303 0
8359 8980 9303 0
8357 9304 8980 0
9304 9302 8980 0
9297 9304 8357 0
8983 9305 9306 0
8982 9305 8983 0
8984 8983 9306 0
8676 8984 8992 0
8984 9306 8992 0
8673 8985 9299 0
8986 9299 8985 0
9301 9299 8986 0
8987 9301 8986 0
9307 8987 8989 0
8989 9308 9307 0
8359 9303 9309 0
8991 9305 8982 0
9308 8989 8995 0
9308 8995 9310 0
9309 8996 8359 0
8998 9311 8680 0
8680 9311 8681 0
8026 9312 8999 0
9000 9313 8991 0
9314 9313 9000 0
9000 9315 9314 0
9000 9001 9315 0
9001 9316 9315 0
9316 9001 8693 0
9317 9316 8693 0
8691 9318 9003 0
9318 9319 9003 0
8693 9004 9317 0
9319 9320 9003 0
9321 9005 9320 0
9320 9005 9003 0
9006 9002 8046 0
9322 9006 8373 0
9008 9007 9323 0
9323 9007 9324 0
9009 9008 9323 0
9322 9009 9323 0
8373 9009 9322 0
9321 9325 9010 0
9005 9321 9010 0
9324 9325 9321 0
9007 9326 9324 0
9007 9011 9326 0
9324 9327 9325 0
9011 9327 9326 0
9326 9327 9324 0
9010 9325 9013 0
9015 9013 9325 0
9327 9015 9325 0
9011 9015 9327 0
8369 9020 8697 0
9328 8371 9017 0
8698 8710 9017 0
8384 9020 8709 0
9020 9329 8709 0
9330 9329 9331 0
9021 9330 9332 0
9021 9329 9330 0
9021 8709 9329 0
9021 9332 9022 0
8710 9025 9017 0
9026 9331 9333 0
9027 9026 9333 0
9331 9023 9330 0
9331 9026 9023 0
9024 9330 9023 0
9332 9330 9024 0
9022 9332 9024 0
9334 9025 8715 0
9027 9333 8723 0
8723 9335 8724 0
8715 9028 9334 0
8724 9335 9030 0
9336 9031 9337 0
9035 9033 9338 0
9339 9036 9338 0
9036 9035 9338 0
9036 9339 8728 0
9041 9337 9037 0
9037 9337 9031 0
8728 9339 9038 0
8414 9040 9340 0
9337 9041 9340 0
9340 9041 8414 0
9039 9038 8416 0
8417 8730 8075 0
9045 9043 9341 0
9046 9342 9044 0
9045 9341 9343 0
8426 9045 9343 0
8735 8426 9343 0
9046 9049 9344 0
9342 9046 9344 0
9345 9047 9048 0
9345 9346 9047 0
9346 8738 9047 0
9344 9049 9050 0
8738 9346 8743 0
9346 9347 8743 0
8739 9348 9349 0
8742 9348 8739 0
8739 9349 9050 0
9350 9057 9347 0
9057 8743 9347 0
8742 9052 9348 0
9056 9350 9055 0
9057 9350 9056 0
9351 9052 9051 0
9352 8440 8752 0
9063 8440 9353 0
8440 9352 9353 0
9063 9353 9051 0
8451 9068 9069 0
9066 9076 8759 0
8759 9354 9067 0
9068 9067 9354 0
9355 9068 9354 0
9071 9072 9356 0
9357 8763 9075 0
8764 8763 9358 0
8763 9357 9358 0
8764 9358 9076 0
9359 8759 9076 0
9354 8759 9359 0
9071 9356 9360 0
9075 9071 9360 0
9361 9075 9360 0
9079 9362 9078 0
9079 9080 9081 0
8116 9363 8770 0
9079 9364 9362 0
9081 9364 9079 0
9082 9365 9081 0
9083 9365 9082 0
8770 9363 9087 0
9083 9366 9365 0
9084 9366 9083 0
9085 8461 9084 0
9088 9087 9367 0
9089 9088 9367 0
9086 9090 9368 0
9090 9093 9368 0
8776 9093 9090 0
9089 9367 9369 0
8774 9089 9369 0
9091 8774 9369 0
9093 8778 9370 0
8778 9097 9370 0
9092 9371 8777 0
8777 9371 9372 0
9095 8777 9372 0
9097 9096 9373 0
9096 9374 9373 0
9375 9374 9098 0
9098 9374 9096 0
9094 9095 9376 0
9099 9094 9377 0
9099 9377 9100 0
9102 9378 9375 0
9102 9375 9098 0
9102 9103 9378 0
9105 9106 9107 0
9379 9380 9377 0
9377 9381 9100 0
9377 9380 9381 0
9100 9381 9109 0
9110 9382 9103 0
9111 9382 9110 0
9113 9112 9383 0
9105 9112 8788 0
9105 9384 9112 0
9107 9384 9105 0
9114 9385 9107 0
