#!ascii version written be Caret
20658 41312
6869 6875 6509 0
6510 6876 6874 0
6154 6165 6868 0
6158 6875 6877 0
6158 6877 6513 0
6503 6878 6512 0
6165 6518 6868 0
6865 6868 6879 0
6880 6881 6865 0
6879 6880 6865 0
6510 6514 6876 0
6868 6518 6882 0
6513 6877 6172 0
6514 6883 6876 0
6878 6166 6512 0
6877 6875 6884 0
6877 6884 6172 0
6514 6515 6883 0
6883 6515 6520 0
6518 6517 6882 0
6875 6873 6519 0
6519 6873 6885 0
6884 6875 6519 0
6172 6884 6519 0
6517 6886 6887 0
6517 6887 6882 0
6888 5853 6181 0
6878 6889 6521 0
6166 6878 6521 0
6517 6523 6890 0
6517 6890 6886 0
6891 6887 6886 0
6519 6885 6892 0
6893 6894 6526 0
6895 6894 6893 0
6526 6896 6527 0
6894 6896 6526 0
6897 6888 6181 0
6889 6524 6521 0
6186 6519 6533 0
6898 6893 6899 0
6526 6528 6899 0
6526 6899 6893 0
6527 6896 6900 0
6527 6900 6529 0
6897 6181 6531 0
6901 6897 6531 0
6519 6892 6902 0
6519 6902 6533 0
6903 6898 6899 0
6904 6898 6903 0
6528 6905 6899 0
6899 6905 6903 0
6528 6534 6905 0
6535 6529 6900 0
6906 6901 6531 0
6531 6536 6906 0
6907 6532 6524 0
6907 6908 6532 0
6908 6537 6532 0
6890 6552 6909 0
6523 6552 6890 0
6886 6890 6910 0
6910 6890 6909 0
6911 6891 6886 0
6910 6911 6886 0
6904 6903 6538 0
6903 6905 6538 0
6905 6534 6538 0
6535 6900 6539 0
6912 6906 6540 0
6906 6536 6540 0
6537 6908 6541 0
6908 6913 6541 0
6909 6552 6914 0
6533 6902 6545 0
6548 6915 6912 0
6548 6912 6540 0
6541 6913 6916 0
6549 6541 6916 0
6549 6916 6550 0
6553 6917 6554 0
6546 6556 6918 0
6547 6919 6920 0
6920 6921 6922 0
6915 6922 6921 0
6915 6923 6922 0
6548 6557 6923 0
6915 6548 6923 0
6558 6550 6924 0
6559 6558 6924 0
6552 6560 6914 0
6553 6561 6917 0
6563 6902 6925 0
6902 6892 6925 0
6545 6902 6563 0
6926 6918 6564 0
6918 6556 6564 0
6547 6920 6219 0
6922 6219 6920 0
6566 6219 6922 0
6923 6566 6922 0
6557 6566 6923 0
6559 6924 6567 0
6917 6927 6568 0
6554 6917 6568 0
6561 6927 6917 0
6928 6567 6924 0
6927 6929 6568 0
6568 6929 5880 0
6927 6561 6930 0
6561 6562 6930 0
6563 6925 6229 0
6571 6931 6570 0
6567 6928 6222 0
6928 6932 6222 0
6914 6560 6933 0
6930 6562 6572 0
6925 6892 6934 0
6925 6934 6229 0
6571 6935 6931 0
6571 6573 6935 0
6573 6574 6935 0
6222 6932 6223 0
6936 6930 6572 0
6937 6892 6938 0
6939 6937 6938 0
6228 6934 6937 0
6934 6892 6937 0
6229 6934 6228 0
5880 6929 6580 0
6581 6936 6572 0
6937 6939 6228 0
5576 6940 6575 0
6235 6941 5576 0
5576 6941 6940 0
6941 6235 6236 0
6580 6942 6582 0
6580 6943 6942 0
6580 6929 6943 0
6936 6581 6242 0
6228 6944 6589 0
6939 6944 6228 0
6945 6946 6947 0
6945 6584 6946 0
6584 6577 6946 0
6579 6586 6948 0
6942 6949 6587 0
6582 6942 6587 0
6950 6942 6943 0
6950 6949 6942 0
6588 6944 6951 0
6589 6944 6588 0
6592 6952 6593 0
6953 6952 6592 0
6593 6952 6244 0
6947 6954 6945 0
6584 6955 6594 0
6584 6945 6955 0
6955 6956 6594 0
6956 6595 6594 0
6948 6586 6595 0
6956 6948 6595 0
6587 6949 6596 0
5927 6596 6949 0
6950 5927 6949 0
6242 5927 6950 0
6601 6598 6951 0
6598 6588 6951 0
6592 6600 6957 0
6592 6957 6953 0
6957 6958 6953 0
6958 6959 6952 0
6958 6952 6953 0
6244 6952 6959 0
6945 6954 6960 0
6960 6955 6945 0
6957 6603 6961 0
6600 6603 6957 0
6958 6957 6961 0
6601 6962 6605 0
6603 5925 6961 0
6608 6961 5925 0
6608 6963 6961 0
6963 6958 6961 0
6964 6965 6958 0
6963 6964 6958 0
6966 6954 6947 0
6967 6966 6947 0
6960 6954 6968 0
6968 6954 6966 0
6969 6970 6960 0
6968 6969 6960 0
6607 6605 6962 0
6963 6608 6609 0
6963 6609 6964 0
6964 6609 6971 0
6607 6962 6611 0
6609 6972 6971 0
6612 6972 6609 0
6612 6973 6972 0
6260 6974 6975 0
6260 6975 6614 0
6614 6975 6976 0
6610 6974 6260 0
6612 6613 6973 0
6613 6977 6973 0
6615 6978 6259 0
6976 6615 6614 0
6978 6615 6976 0
6613 6616 6977 0
6616 5935 6977 0
5935 6979 6977 0
5938 6979 5935 0
5938 6618 6979 0
6622 6980 6619 0
6622 6981 6980 0
6617 6982 6621 0
6623 6983 6984 0
6623 6263 6983 0
6624 6985 6986 0
6624 6986 6264 0
6264 6986 6987 0
6980 6981 6988 0
6619 6988 6625 0
6980 6988 6619 0
6983 6263 6629 0
6264 6987 6626 0
6987 6989 6626 0
6627 6988 6990 0
6988 6981 6990 0
6625 6988 6627 0
6991 6983 6629 0
6630 6626 6992 0
6992 6274 6630 0
6627 6993 6631 0
6990 6993 6627 0
6994 6274 6992 0
6995 6631 6993 0
6995 6996 6631 0
6996 6633 6631 0
6997 6991 6629 0
6997 6629 6998 0
6998 6629 6634 0
6635 6274 6994 0
6994 6283 6635 0
6639 6283 6994 0
5950 5958 6267 0
6636 6633 6996 0
6999 6636 6996 0
6637 6998 6634 0
7000 6288 6639 0
5958 6642 6267 0
6644 6284 6636 0
6644 6636 6999 0
6284 6644 6286 0
6637 6638 6641 0
6288 7000 6648 0
7000 7001 6648 0
7001 6647 6648 0
7001 7002 6647 0
6641 6649 7003 0
6650 6647 7002 0
7002 7004 6650 0
6652 6658 7003 0
6658 7005 7003 0
6649 6652 7003 0
6655 6650 7004 0
6643 6656 7006 0
7007 7005 6659 0
6659 7005 6658 0
6662 6654 7008 0
6654 6655 7008 0
7008 6655 7009 0
7010 6655 7004 0
7009 6655 7010 0
6663 7011 6656 0
6664 7012 6665 0
7007 6666 6306 0
6659 6666 7007 0
6662 7013 6668 0
7008 7014 6662 0
7014 7013 6662 0
7015 7014 7009 0
7014 7008 7009 0
7010 7015 7009 0
6663 6669 7016 0
7011 6663 7016 0
6670 7012 7017 0
6665 7012 6670 0
6672 7018 6671 0
7013 7019 6668 0
7016 6669 6675 0
6670 7017 6308 0
7017 7020 6308 0
6668 7019 6676 0
7019 7021 6676 0
7020 6677 6308 0
7022 6677 7020 0
6680 6678 7021 0
7021 6678 6676 0
6318 7023 7024 0
6318 7022 7023 0
6318 6677 7022 0
6680 7025 6681 0
7025 6682 6681 0
7026 6682 7025 0
6685 6318 7024 0
6318 6685 6686 0
6682 7026 7027 0
6682 7027 6320 0
6685 7028 6689 0
6688 6687 6320 0
7029 6688 6320 0
6683 6688 7029 0
7028 7030 6690 0
7028 6690 6689 0
6690 7030 6694 0
6695 7031 6691 0
6695 7032 7031 0
7033 6696 6699 0
7033 6699 6698 0
6695 6701 7032 0
7032 6701 7034 0
6701 6702 7034 0
6702 6704 7034 0
7035 7036 7037 0
7036 6706 7037 0
7033 7037 6706 0
6696 7033 6706 0
6710 7038 6704 0
6710 6339 7038 0
6339 6712 7038 0
6706 7036 7039 0
6706 7039 6713 0
6712 6714 7040 0
6715 7040 6714 0
7041 7040 6715 0
6713 7039 6340 0
6024 6718 6715 0
7042 7036 7043 0
6716 7039 7042 0
7039 7036 7042 0
6340 7039 6716 0
6718 7044 7045 0
7046 6718 7045 0
6716 7047 6719 0
7042 7047 6716 0
7045 7044 7048 0
7048 7044 6718 0
6720 7047 7049 0
6719 7047 6720 0
6341 6721 6718 0
6722 6718 6721 0
7050 7048 7051 0
7051 7048 6718 0
7051 7052 7053 0
7050 7051 7053 0
7054 6723 7055 0
7049 6723 6720 0
7055 6723 7049 0
6724 6718 6722 0
6724 7051 6718 0
7052 7051 6724 0
6357 7054 7056 0
6723 7054 6357 0
7057 7058 7059 0
6724 7060 7052 0
7058 7061 7059 0
6353 6725 6724 0
6725 7060 6724 0
7059 6727 7057 0
6728 6727 7059 0
7061 6728 7059 0
7057 6727 7062 0
6727 7063 7062 0
7064 6728 7061 0
7064 7061 7065 0
6726 6731 6725 0
6725 6731 7066 0
6728 7064 6733 0
6733 7065 6750 0
6733 7064 7065 0
7065 7067 6750 0
7066 6731 6734 0
7068 7069 7063 0
7070 7069 7068 0
6727 6736 7068 0
6727 7068 7063 0
7071 6735 6356 0
7071 7072 6735 0
6736 7070 7068 0
6736 6745 7070 0
6735 7072 6741 0
6745 6744 7070 0
7067 7073 6750 0
7074 7067 7075 0
7073 7067 7074 0
7076 6749 7073 0
6749 6750 7073 0
7074 7076 7073 0
7077 6747 6741 0
6747 7077 6751 0
6754 6749 7076 0
7077 7078 6751 0
7078 6756 6751 0
6760 7079 6388 0
6388 7079 6744 0
7080 6754 7076 0
7081 6756 7078 0
7080 7082 6754 0
6761 7083 6758 0
6758 7083 6757 0
6762 6756 7081 0
7084 6762 7081 0
6760 6387 7085 0
6754 7082 6764 0
7083 6761 7086 0
7087 6762 7084 0
7085 6767 7088 0
6387 6767 7085 0
6761 6401 7086 0
6762 7089 6765 0
7089 6770 6765 0
7090 7088 6767 0
7091 7088 7090 0
6767 6772 7090 0
7092 6401 6074 0
7093 6769 6770 0
7093 6770 7094 0
7094 6770 7089 0
7091 7095 7096 0
7091 7090 7095 0
7090 6777 7095 0
7090 6772 6777 0
6778 6775 7097 0
6074 6779 7098 0
7099 7096 7095 0
6781 7099 6777 0
6777 7099 7095 0
6778 7100 6782 0
7097 7100 6778 0
6791 7101 7098 0
6791 7098 6783 0
6783 7098 6779 0
6769 7093 6784 0
7102 6417 6786 0
6787 6417 7103 0
6417 7102 7103 0
7103 6788 6787 0
7104 6788 7103 0
7105 7096 7099 0
6781 6789 7105 0
7099 6781 7105 0
7100 6790 6782 0
7106 6790 7100 0
7107 7093 7108 0
6784 7093 7107 0
6784 7109 6785 0
6785 7109 6780 0
7109 7110 6780 0
6780 7110 6425 0
7102 6786 6793 0
7104 6794 6788 0
7105 6795 7111 0
6789 6795 7105 0
6796 6790 7112 0
6790 7106 7112 0
6784 7107 7113 0
7109 6784 7113 0
7113 7114 7109 0
7115 7109 7114 0
6799 7110 7115 0
7110 7109 7115 0
6425 7110 6799 0
6800 7116 6793 0
6794 7117 6801 0
7111 7118 7119 0
7111 6445 7118 0
7111 6438 6445 0
6795 6438 7111 0
6432 6796 7120 0
7112 7120 6796 0
7115 7114 7121 0
7122 7115 7121 0
6799 7115 7122 0
6799 7122 6803 0
6803 7122 7123 0
6804 6803 7124 0
6803 7123 7124 0
7124 6806 6804 0
7125 6806 7124 0
6800 7126 7116 0
6800 6443 7126 0
7117 6810 6801 0
7127 6810 7117 0
6811 6452 7128 0
7118 7128 7119 0
7118 6811 7128 0
7118 6445 6811 0
6432 7129 6814 0
7120 7129 6432 0
7130 6816 7125 0
7125 6816 6806 0
6818 6817 7131 0
6817 7132 7131 0
7126 6443 6818 0
7131 7126 6818 0
6810 7127 6820 0
7127 7133 6820 0
7128 6452 7134 0
7134 6452 7135 0
6816 7130 7136 0
6816 7136 6824 0
6824 7136 6825 0
6826 6825 7137 0
7132 6817 6826 0
7137 7132 6826 0
6820 7133 7138 0
6827 6820 7138 0
6822 6827 7139 0
7135 6452 6822 0
7139 7135 6822 0
6830 6823 6814 0
6831 7140 5773 0
6831 6830 7140 0
6831 6829 6830 0
5773 7140 6111 0
6831 6832 6829 0
6834 7141 6833 0
7141 6837 6833 0
6835 7141 6834 0
7142 7141 6835 0
6836 7142 6835 0
6836 6462 7142 0
5788 7143 6119 0
6119 7143 6462 0
5788 6120 7143 0
6126 6125 7144 0
6121 6466 7145 0
6126 7146 6468 0
6130 6469 6839 0
6839 7147 6470 0
6132 6840 6471 0
6470 7147 6472 0
6844 6845 7148 0
6845 7149 7148 0
6481 7149 6845 0
6474 7150 6842 0
7151 6840 6843 0
6844 7152 7153 0
6478 6844 7153 0
7152 6844 7148 0
6481 7154 7149 0
6846 7154 6481 0
6484 6849 6846 0
6846 6849 7154 0
6849 6848 6847 0
6474 7155 7156 0
7150 6474 7156 0
6850 6842 7150 0
6478 7153 6493 0
7153 7157 6493 0
7158 6851 6853 0
6850 7150 7159 0
6843 6852 7151 0
7157 6856 6493 0
6859 7160 5511 0
6856 7157 7161 0
6503 7162 7163 0
6503 6856 7162 0
6856 7161 7162 0
7163 7164 7165 0
7162 7164 7163 0
6858 6854 7166 0
6858 6855 6854 0
6858 7166 6502 0
7167 7165 7164 0
7167 7168 7165 0
7168 7169 7170 0
7167 7169 7168 0
6857 7171 6853 0
7171 6857 6860 0
7172 7170 7169 0
7172 7173 7170 0
7173 7174 7175 0
7172 7174 7173 0
7176 6862 7177 0
7176 7171 6862 0
7171 6860 6862 0
7177 7178 7179 0
7176 7177 7179 0
7179 7178 7180 0
6863 6502 7181 0
7182 6864 7183 0
7182 6861 6864 0
6861 4517 6864 0
7184 7175 7174 0
7184 7185 7175 0
7185 7186 7187 0
7184 7186 7185 0
7186 7188 7187 0
6865 7177 6862 0
6865 7189 7177 0
7189 7178 7177 0
7190 7180 7178 0
7189 7190 7178 0
6864 6866 7183 0
6866 6867 7183 0
7183 6867 6870 0
7191 7183 6870 0
7192 7187 7188 0
6881 7190 7189 0
6865 6881 7189 0
7193 7194 7195 0
7181 7195 7194 0
6863 7196 6872 0
7181 7196 6863 0
7191 6870 6871 0
7185 7197 7175 0
7187 7197 7185 0
7197 7187 7192 0
6872 7196 7198 0
6872 7198 6873 0
6871 6874 7191 0
7175 7199 7173 0
7197 7199 7175 0
7194 7193 7200 0
7181 7194 7200 0
7196 7181 7200 0
7191 6874 7201 0
6874 6876 7201 0
6881 7202 7203 0
6503 7163 6878 0
7170 7204 7168 0
7173 7204 7170 0
7205 7204 7199 0
7204 7173 7199 0
6881 6880 7202 0
6873 7198 6885 0
7206 6876 6883 0
7205 7207 7204 0
6868 6882 7208 0
6868 7209 6879 0
7208 7209 6868 0
6879 7209 7210 0
6879 7210 6880 0
6880 7210 7202 0
7196 7200 7211 0
7198 7196 7211 0
7198 7211 6885 0
7212 7206 6883 0
7165 7204 7163 0
7168 7204 7165 0
7213 7210 7209 0
7211 7200 7214 0
6883 7215 7212 0
7215 6883 6520 0
7209 7208 7216 0
7216 7213 7209 0
6520 5853 7215 0
7163 7217 6878 0
7204 7218 7163 0
7218 7217 7163 0
6882 6887 7208 0
7211 7214 7219 0
7219 7214 7220 0
6892 7211 7219 0
6885 7211 6892 0
7221 7222 6895 0
6895 7223 6894 0
7222 7223 6895 0
7217 7224 6878 0
6878 7224 6889 0
7218 7204 7225 0
7226 7204 7207 0
7225 7204 7226 0
7208 6891 7227 0
6887 6891 7208 0
7216 7208 7227 0
7220 7228 7219 0
7219 7228 6892 0
6895 6893 7229 0
6895 7229 7221 0
6894 7223 7230 0
6894 7230 6896 0
6889 7224 6524 0
7227 6891 7231 0
7228 6938 6892 0
6893 6898 7232 0
7229 6893 7232 0
6896 7230 7233 0
6900 6896 7233 0
6524 7224 6907 0
7224 7234 6907 0
7235 7232 6898 0
6539 6900 7233 0
6897 6901 7236 0
7236 6901 6906 0
7234 6908 6907 0
7237 6908 7234 0
6891 6911 7231 0
7238 6898 6904 0
6904 6538 7238 0
6906 6912 7236 0
7237 6913 6908 0
7237 7239 6913 0
6909 6914 7240 0
6909 7241 6910 0
7240 7241 6909 0
6910 7241 7242 0
6910 7242 6911 0
6911 7242 7231 0
7238 6538 6546 0
7243 7236 6912 0
6912 6915 7243 0
6913 7239 7244 0
6913 7244 6916 0
6916 7244 6550 0
7244 6924 6550 0
7245 7242 7241 0
6547 6539 6919 0
6920 6919 7246 0
7243 6921 7246 0
7246 6921 6920 0
6915 6921 7243 0
6924 7244 7247 0
7241 7240 7248 0
7249 7245 7241 0
7248 7249 7241 0
6564 7250 6926 0
7250 6918 6926 0
6928 6924 7251 0
7240 6914 7252 0
7252 7248 7240 0
6927 7253 6929 0
6927 6930 7253 0
6564 7254 7250 0
6564 6570 7254 0
6570 7255 7254 0
6570 7256 7255 0
6931 7256 6570 0
7257 7256 6931 0
7251 6932 6928 0
7251 7258 6932 0
6914 6933 7252 0
6935 7257 6931 0
6935 6574 7257 0
7258 7259 6932 0
6930 6936 7253 0
6938 7260 6939 0
7260 7261 6939 0
6575 7262 6574 0
6575 7263 7262 0
6223 6932 6577 0
6933 6560 7264 0
7265 6939 7261 0
6575 6940 7263 0
7263 6940 6941 0
6577 6932 6946 0
6579 7266 6560 0
6560 7266 7264 0
7253 7267 6943 0
6929 7253 6943 0
6936 6242 7267 0
7253 6936 7267 0
7265 6944 6939 0
7268 6947 6946 0
6579 6948 7269 0
7266 6579 7269 0
6943 7267 6950 0
6242 6950 7267 0
7270 6944 7265 0
6944 7270 6951 0
7271 6947 7268 0
6956 7272 6948 0
6948 7272 7269 0
6951 7270 6601 0
7273 6959 6958 0
7273 7274 6959 0
7274 6244 6959 0
6244 7274 4984 0
6955 6960 7275 0
6955 7275 7276 0
6955 7276 6956 0
7272 6956 7276 0
7270 6962 6601 0
7277 7273 6958 0
6965 7277 6958 0
7271 7278 6947 0
6960 6970 7275 0
6970 7279 7275 0
6965 6964 7280 0
7281 6967 7278 0
6967 6947 7278 0
6970 6969 7282 0
7280 6964 6971 0
6967 7283 6966 0
6967 7281 7283 0
6966 7284 6968 0
7283 7284 6966 0
6968 7284 7285 0
6968 7285 6969 0
6969 7285 7282 0
6974 7286 7287 0
6975 6974 7287 0
6610 7288 6974 0
6974 7288 7286 0
6962 7288 6611 0
7288 6610 6611 0
6971 7289 7290 0
6971 6972 7289 0
6972 6973 7289 0
7289 6973 6977 0
7285 7284 7291 0
7292 7293 7294 0
7294 7293 7295 0
7295 6976 7287 0
6976 6975 7287 0
7296 7289 6977 0
7297 7281 7298 0
7283 7281 7297 0
7284 7283 7297 0
7292 6982 7299 0
6259 7293 7299 0
7293 7292 7299 0
6978 7293 6259 0
7295 7293 6978 0
6976 7295 6978 0
6977 6618 7300 0
7297 7301 7302 0
6981 7303 7304 0
7303 7291 7304 0
7305 7303 6981 0
6622 7305 6981 0
6621 7305 6622 0
6982 7305 6621 0
7299 6982 6617 0
6259 7299 6617 0
6623 7306 7307 0
6623 6984 7306 0
6984 7308 7306 0
6624 6623 7307 0
7309 6624 7307 0
7310 6624 7309 0
7310 6985 6624 0
7310 7311 6985 0
7311 7312 6985 0
6977 6979 6618 0
7301 7313 7302 0
7302 7313 7297 0
7314 7297 7313 0
7284 7297 7314 0
7291 7284 7314 0
7308 6984 6983 0
7315 7308 6983 0
6985 7312 7316 0
6986 6985 7316 0
6986 7316 6987 0
6618 5936 6267 0
7313 7301 7317 0
7314 7313 7317 0
7318 7314 7317 0
7318 7319 7314 0
7320 7314 7319 0
7291 7314 7320 0
7304 7291 7320 0
7315 6983 6997 0
6989 7321 6626 0
7320 7319 7322 0
7323 7320 7322 0
6981 7304 6990 0
6983 6991 6997 0
6992 6626 7321 0
7320 6993 7304 0
7304 6993 6990 0
6993 7320 7324 0
6993 7324 6995 0
6995 7324 7325 0
7325 6996 6995 0
7326 6996 7325 0
6992 7327 7328 0
6994 6992 7328 0
7329 6639 6994 0
7330 6996 7326 0
6997 6998 6637 0
7000 6639 7329 0
7001 7000 7329 0
6267 6642 7331 0
7331 6642 6643 0
7006 7331 6643 0
6637 6641 7003 0
7001 7332 7002 0
7333 6637 7003 0
7334 6664 6297 0
7333 7007 7335 0
7003 7005 7007 0
7333 7003 7007 0
7006 6656 7336 0
6664 7337 7338 0
7337 6664 7334 0
6306 6671 7335 0
7007 6306 7335 0
7004 7339 7010 0
6656 7011 7336 0
6664 7338 7012 0
7339 7015 7010 0
7340 7015 7339 0
7336 7011 7016 0
7341 7336 7016 0
7342 7017 7343 0
7017 7012 7343 0
7013 7344 7019 0
7013 7014 7345 0
7344 7013 7345 0
7014 7346 7345 0
7014 7015 7346 0
7015 7340 7346 0
7341 7016 6675 0
7017 7347 7020 0
7342 7347 7017 0
6672 6313 7348 0
7344 7349 7021 0
7019 7344 7021 0
7345 7349 7344 0
7022 7347 7350 0
7020 7347 7022 0
7021 7349 6680 0
7025 6680 7349 0
7025 7349 7351 0
7351 7349 7345 0
7352 7345 7346 0
7351 7345 7352 0
6675 6679 7353 0
7353 6679 7354 0
7024 7023 7355 0
7355 7023 7356 0
7350 7023 7022 0
7356 7023 7350 0
7351 7026 7025 0
7351 7352 7026 0
7352 7357 7026 0
7029 7354 6683 0
6683 7354 6679 0
7026 7357 7027 0
6320 7027 7358 0
7359 7360 6320 0
7359 6320 7358 0
7029 6320 7360 0
7028 6685 7361 0
7348 6313 6691 0
7362 7030 7363 0
7361 7030 7028 0
7363 7030 7361 0
7364 6700 7365 0
7362 7365 6694 0
7365 6700 6694 0
7030 7362 6694 0
6691 7031 7366 0
7031 7032 7366 0
7037 7033 7367 0
7367 7033 7368 0
7364 7368 6698 0
7368 7033 6698 0
6700 7364 6698 0
7032 7369 7366 0
7034 7369 7032 0
6704 7369 7034 0
6704 7370 7369 0
6704 7371 7370 0
7372 7036 7035 0
7372 7035 7373 0
7035 7037 7373 0
6704 7038 7371 0
6712 7371 7038 0
7374 7371 6712 0
6712 7375 7374 0
7375 6712 7040 0
7372 7043 7036 0
7041 7376 7040 0
7041 6715 7376 0
6715 7377 7376 0
6715 6718 7377 0
6718 7046 7377 0
7046 7045 7378 0
7045 7379 7378 0
7042 7380 7047 0
7043 7380 7042 0
7045 7048 7379 0
7380 7049 7047 0
7381 7382 7383 0
7382 7384 7383 0
7048 7385 7379 0
7048 7050 7385 0
7050 7053 7385 0
7052 7386 7387 0
7052 7387 7053 0
7053 7387 7385 0
7054 7388 7389 0
7056 7054 7389 0
7380 7055 7049 0
7380 7388 7055 0
7388 7054 7055 0
7383 7390 7381 0
7058 7390 7383 0
7391 7058 7383 0
7058 7392 7393 0
7391 7392 7058 0
7052 7060 7386 0
7056 7389 6357 0
7394 7395 7381 0
7396 7395 7394 0
7390 7057 7394 0
7390 7394 7381 0
7058 7057 7390 0
7397 7393 7392 0
7397 7398 7393 0
7398 7058 7393 0
7399 7386 7060 0
7057 7396 7394 0
7061 7058 7400 0
7400 7058 7398 0
7401 7400 7398 0
7060 6725 7402 0
7399 7060 7402 0
6357 7403 6356 0
7057 7062 7396 0
7063 7069 7396 0
7062 7063 7396 0
7061 7400 7065 0
7401 7065 7400 0
6725 7066 7402 0
7396 7069 7404 0
7067 7065 7405 0
7405 7065 7401 0
7406 7401 7407 0
7405 7401 7406 0
6734 7408 7066 0
6356 7403 7071 0
7069 7070 7404 0
7405 7075 7067 0
7405 7406 7075 0
6734 6368 7408 0
7070 6744 7404 0
7075 7409 7074 0
7076 7409 7410 0
7409 7076 7074 0
6741 7411 7077 0
6744 7079 7404 0
7404 7079 7412 0
7410 7413 7076 0
7411 7078 7077 0
7412 7079 6760 0
7414 7412 6760 0
7415 7080 7413 0
7080 7076 7413 0
7078 7411 7416 0
7416 7081 7078 0
7080 7415 7082 0
6757 7083 7417 0
7418 7081 7416 0
7081 7418 7084 0
6760 7085 7414 0
7414 7085 7419 0
7417 7083 7086 0
7084 7420 7087 0
7418 7420 7084 0
7419 7085 7088 0
7421 7419 7088 0
7087 7422 6762 0
7087 7420 7422 0
7420 7423 7422 0
6762 7422 7089 0
7088 7091 7421 0
7422 7423 7108 0
7089 7108 7094 0
7422 7108 7089 0
7096 7424 7091 0
7091 7424 7421 0
6074 7098 7425 0
7094 7108 7093 0
7424 7096 7426 0
7425 7098 7101 0
7427 7425 7101 0
7102 7428 7103 0
7429 7428 7102 0
7103 7428 7104 0
7096 7105 7426 0
7106 7100 7430 0
7101 6791 7427 0
7427 6791 7431 0
7432 7423 7433 0
6793 7429 7102 0
6793 7434 7429 0
7434 7435 7429 0
6794 7428 7435 0
7428 7429 7435 0
7104 7428 6794 0
7106 7436 7112 0
7430 7436 7106 0
7431 6791 6797 0
7423 7432 7437 0
7108 7423 7437 0
7438 7108 7437 0
7439 7108 7438 0
7439 7107 7108 0
7439 7113 7107 0
6793 7116 7434 0
7435 7434 7440 0
7440 7434 7116 0
6794 7440 7117 0
7435 7440 6794 0
7436 7120 7112 0
7114 7113 7121 0
7121 7113 7441 0
7122 7121 7442 0
7121 7441 7442 0
7123 7122 7442 0
7116 7126 7443 0
7443 7444 7116 0
7127 7440 7444 0
7440 7116 7444 0
7117 7440 7127 0
7129 7120 7445 0
7124 7123 7446 0
7447 7124 7446 0
7125 7124 7447 0
7125 7447 7130 0
7130 7447 7448 0
7132 7443 7131 0
7449 7443 7132 0
7131 7443 7126 0
7444 7443 7450 0
7127 7450 7133 0
7444 7450 7127 0
7451 7134 7135 0
7451 7128 7134 0
7452 7129 7445 0
6814 7129 7452 0
7453 6453 6828 0
7130 7448 7454 0
7136 7130 7454 0
7136 7454 6825 0
7449 7132 7137 0
7449 7137 7455 0
7455 7456 7449 0
7449 7456 7443 0
7450 7443 7456 0
7133 7457 7138 0
7133 7450 7457 0
7450 7456 7457 0
7457 7458 7138 0
7458 6827 7138 0
7139 6827 7459 0
6827 7458 7459 0
7451 7135 7139 0
7451 7139 7460 0
7460 7139 7459 0
7461 6814 7452 0
6830 6814 7461 0
6830 7461 6828 0
6830 6828 7140 0
7140 6828 6111 0
7141 7462 6837 0
7141 7142 7462 0
7143 7463 6462 0
7464 7463 7143 0
7143 6120 7464 0
6120 7465 7464 0
6120 7466 7465 0
6121 7466 6120 0
6122 7467 6464 0
6121 7468 7466 0
6121 7145 7468 0
7145 7469 7468 0
6464 7467 7470 0
6465 6464 7470 0
6125 6465 7471 0
6465 7470 7471 0
6125 7471 7144 0
7144 7146 6126 0
7145 7472 7469 0
6466 7472 7145 0
6466 6838 7472 0
6839 6469 7473 0
7473 7147 6839 0
6471 7474 6838 0
7475 7476 7474 0
7475 7474 6840 0
6840 7474 6471 0
7147 7473 7477 0
6472 7147 6841 0
7147 7477 6841 0
7151 7475 6840 0
7478 7148 7149 0
6474 6841 7155 0
7151 7479 7475 0
7152 7480 7153 0
7478 7152 7148 0
7478 7480 7152 0
7481 7478 7149 0
7149 7154 7481 0
7154 6849 7481 0
7155 7482 7483 0
7156 7155 7483 0
7150 7156 7483 0
6847 7484 6849 0
6847 6851 7484 0
7485 6851 7158 0
7150 7483 7159 0
6850 7159 7486 0
7486 6854 6850 0
7151 6852 7487 0
5511 7160 6852 0
6854 7486 7488 0
7489 6854 7488 0
7490 7160 6859 0
7157 7491 7161 0
7162 7161 7492 0
7161 7491 7492 0
7164 7162 7492 0
7489 7166 6854 0
7164 7492 7493 0
7167 7164 7493 0
7169 7167 7494 0
7167 7493 7494 0
7171 7158 6853 0
7495 7166 7489 0
6861 7496 6859 0
7496 7490 6859 0
7169 7494 7497 0
7172 7169 7497 0
7174 7172 7498 0
7172 7497 7498 0
7171 7176 7158 0
7179 7499 7176 0
7499 7179 7180 0
7500 7499 7180 0
7501 6502 7166 0
7501 7166 7495 0
6502 7501 7181 0
6861 7502 7496 0
6861 7182 7502 0
7174 7498 7503 0
7184 7174 7503 0
7186 7184 7504 0
7184 7503 7504 0
7504 7188 7186 0
7505 7188 7504 0
7506 7500 7190 0
7500 7180 7190 0
7507 7508 7509 0
7501 7195 7181 0
7510 7183 7191 0
7505 7511 7192 0
7505 7192 7188 0
7506 6881 7203 0
7190 6881 7506 0
7508 7506 7203 0
7193 7509 7512 0
7509 7508 7512 0
7195 7509 7193 0
7511 7513 7197 0
7192 7511 7197 0
7514 7511 7505 0
7514 7515 7511 0
7515 7513 7511 0
7514 7516 7515 0
7517 7510 7191 0
7197 7518 7199 0
7197 7513 7518 0
7515 7518 7513 0
7201 7517 7191 0
7206 7517 7201 0
7203 7202 7519 0
7193 7512 7200 0
7206 7201 6876 0
7199 7520 7205 0
7520 7521 7205 0
7518 7520 7199 0
7521 7207 7205 0
7202 7210 7519 0
7203 7519 7522 0
7508 7203 7522 0
7512 7508 7523 0
7512 7523 7200 0
7524 7206 7212 0
7207 7525 7526 0
7525 7207 7521 0
7210 7213 7519 0
7522 7519 7213 0
7527 7508 7522 0
7523 7508 7527 0
7200 7523 7214 0
7215 7528 7212 0
7528 7524 7212 0
7214 7523 7529 0
7528 7215 7530 0
7530 7215 5853 0
7526 7531 7207 0
7523 7527 7532 0
7532 7527 7533 0
7529 7523 7534 0
7214 7534 7220 0
7529 7534 7214 0
7222 7221 7535 0
7536 7222 7535 0
7536 7537 7222 0
7222 7537 7223 0
6888 7530 5853 0
7217 7538 7224 0
7217 7218 7539 0
7538 7217 7539 0
7207 7531 7226 0
7216 7540 7213 0
7532 7541 7523 0
7534 7523 7542 0
7542 7523 7541 0
7220 7534 7543 0
7534 7542 7543 0
7220 7543 7228 0
7230 7223 7537 0
7544 7230 7537 0
7545 6888 6897 0
7218 7225 7546 0
7218 7546 7539 0
7225 7547 7546 0
7225 7226 7547 0
7227 7231 7548 0
7227 7549 7216 0
7548 7549 7227 0
7216 7549 7550 0
7540 7216 7550 0
7542 7551 7543 0
7228 7551 6938 0
7543 7551 7228 0
7232 7552 7221 0
7221 7229 7232 0
7233 7230 7544 0
7538 7553 7234 0
7224 7538 7234 0
7539 7553 7538 0
7546 7554 7539 0
7555 7546 7547 0
7554 7546 7555 0
6938 7551 7556 0
7551 7557 7556 0
6938 7556 7260 0
7558 7552 7232 0
7559 7552 7558 0
7232 7235 7558 0
7233 7560 6539 0
7561 7545 6897 0
6897 7236 7561 0
7237 7234 7553 0
7237 7553 7562 0
7562 7553 7539 0
7563 7562 7554 0
7562 7539 7554 0
7555 7563 7554 0
7557 7564 7556 0
7556 7564 7260 0
7235 6898 7565 0
7565 6898 7238 0
7566 7561 7567 0
7561 7236 7567 0
7562 7239 7237 0
7562 7563 7239 0
7231 7242 7548 0
7564 7568 7260 0
7238 6546 7565 0
7565 6546 7569 0
6539 7560 7570 0
6539 7571 7572 0
7566 7572 7571 0
7566 7567 7572 0
7567 7573 7572 0
7236 7243 7573 0
7567 7236 7573 0
7244 7239 7574 0
7574 7239 7563 0
7548 7245 7575 0
7242 7245 7548 0
7549 7548 7576 0
7576 7548 7575 0
7577 7550 7549 0
7576 7577 7549 0
6539 7572 6919 0
7246 6919 7572 0
7573 7246 7572 0
7243 7246 7573 0
7244 7574 7578 0
7244 7578 7247 0
7247 7578 7579 0
7580 7247 7579 0
7577 7576 7575 0
6924 7247 7580 0
7581 6924 7580 0
7575 7245 7582 0
7245 7249 7582 0
6918 7583 6546 0
7583 6918 7250 0
7251 6924 7581 0
7248 7252 7584 0
7248 7584 7249 0
7249 7584 7582 0
7250 7585 7583 0
7254 7585 7250 0
7255 7585 7254 0
7581 7258 7251 0
7586 7258 7581 0
7252 6933 7584 0
7255 7587 7585 0
7256 7587 7255 0
7588 7587 7256 0
7257 7588 7256 0
7257 6574 7588 0
7259 7258 7589 0
7258 7586 7589 0
6933 7590 7584 0
7568 7261 7260 0
6574 7262 7591 0
7591 7262 7592 0
7262 7263 7592 0
6933 7264 7593 0
7265 7261 7568 0
7263 7594 7592 0
6941 7594 7263 0
7594 6941 6236 0
6932 7259 6946 0
7259 7595 6946 0
7264 7266 7596 0
7596 7593 7264 0
7568 7597 7265 0
7598 7268 7599 0
7595 7268 6946 0
7599 7268 7595 0
7269 7596 7266 0
7269 7600 7596 0
7601 7270 7597 0
7270 7265 7597 0
5577 4982 7602 0
7598 7603 7271 0
7268 7598 7271 0
7600 7272 7604 0
7269 7272 7600 0
7596 7600 7605 0
7605 7600 7604 0
7605 7606 7596 0
7274 7607 7608 0
7273 7607 7274 0
4984 7274 7609 0
7274 7608 7609 0
7602 4982 4985 0
7603 7610 7271 0
7276 7611 7612 0
7275 7611 7276 0
7604 7272 7276 0
7604 7276 7613 0
7613 7276 7612 0
7605 7604 7613 0
7614 7605 7613 0
7606 7605 7614 0
7601 7615 7616 0
7270 7616 6962 0
7601 7616 7270 0
7273 7277 7607 0
7610 7278 7271 0
7275 7279 7611 0
7611 7279 7617 0
7618 7619 7620 0
7615 7619 7621 0
7621 7619 7618 0
6962 7616 7621 0
7616 7615 7621 0
6965 7280 7622 0
6965 7622 7277 0
7277 7622 7607 0
7278 7610 7281 0
6970 7282 7623 0
7624 7617 7279 0
7624 7279 7623 0
7623 7279 6970 0
7623 7625 7626 0
7624 7623 7626 0
7618 7627 7628 0
7618 7628 7629 0
6962 7621 7629 0
7621 7618 7629 0
6971 7290 7622 0
6971 7622 7280 0
7623 7285 7630 0
7282 7285 7623 0
7625 7623 7631 0
7305 7625 7631 0
7305 7626 7625 0
7628 7627 7287 0
7628 7287 7286 0
7288 7628 7286 0
7629 7628 7288 0
6962 7629 7288 0
7291 7630 7285 0
7291 7631 7630 0
7631 7623 7630 0
7632 7292 7294 0
7294 7633 7632 0
7295 7633 7294 0
7627 7633 7295 0
7287 7627 7295 0
7290 7289 7296 0
7290 7296 7634 0
7634 7296 7635 0
7298 7636 7297 0
7303 7631 7291 0
7305 7631 7303 0
7632 7305 6982 0
7292 7632 6982 0
7309 7637 7310 0
7637 7311 7310 0
7638 7311 7637 0
7296 7639 7635 0
6977 7639 7296 0
6977 7300 7639 0
7297 7636 7301 0
7306 7308 7640 0
7641 7312 7638 0
7638 7312 7311 0
7308 7315 7640 0
7312 7641 7642 0
7312 7642 7316 0
7316 7642 6987 0
7642 6989 6987 0
7643 6989 7642 0
7301 7644 7645 0
7317 7301 7645 0
7646 7318 7645 0
7318 7317 7645 0
7318 7646 7319 0
7647 7315 6997 0
6989 7643 7321 0
7319 7646 7322 0
7322 7646 7648 0
7323 7322 7648 0
7649 6992 7321 0
7320 7323 7650 0
7649 7327 6992 0
7320 7651 7324 0
7320 7650 7651 0
7650 7652 7651 0
7324 7653 7325 0
7651 7653 7324 0
7325 7653 7326 0
7327 7329 7328 0
7328 7329 6994 0
7653 7651 7654 0
7654 7651 7652 0
7326 7654 7330 0
7653 7654 7326 0
7655 7001 7329 0
7652 7656 7654 0
7330 7657 6996 0
7330 7654 7657 0
7654 7656 7657 0
6996 7657 6999 0
6637 7658 6997 0
7655 7332 7001 0
7659 6267 7331 0
7331 7006 7659 0
7657 7656 7660 0
7661 7657 7660 0
7661 6999 7657 0
7661 7662 6999 0
7662 6644 6999 0
7332 7655 7002 0
7655 7663 7002 0
7664 7659 7336 0
7659 7006 7336 0
6644 7662 6297 0
6671 7658 6637 0
6637 7333 6671 0
7663 7004 7002 0
7665 7004 7663 0
7666 7664 7336 0
7333 7335 6671 0
7338 7667 7343 0
7012 7338 7343 0
7668 7669 7018 0
7018 7669 6671 0
7004 7665 7339 0
7670 7666 7336 0
7340 7339 7671 0
7339 7665 7671 0
7341 7670 7336 0
7341 7672 7670 0
7342 7673 7674 0
7342 7674 7675 0
7343 7673 7342 0
7018 7348 7676 0
7018 6672 7348 0
7340 7677 7346 0
7678 7340 7671 0
7677 7340 7678 0
7672 7341 6675 0
7679 7672 6675 0
7680 7347 7675 0
7347 7342 7675 0
7681 7676 7348 0
7681 7348 7682 0
7683 7677 7678 0
7684 7679 7353 0
7353 7679 6675 0
7675 7685 7686 0
7675 7686 7680 0
7680 7686 7687 0
7347 7687 7350 0
7680 7687 7347 0
7682 7348 7688 0
7346 7677 7352 0
7684 7029 7683 0
7029 7360 7683 0
7353 7354 7029 0
7684 7353 7029 0
7355 7686 7685 0
7355 7685 7024 0
7356 7686 7355 0
7687 7686 7356 0
7350 7687 7356 0
7677 7689 7357 0
7352 7677 7357 0
7683 7359 7677 0
7359 7689 7677 0
7360 7359 7683 0
7024 7690 6685 0
7688 7348 7691 0
7357 7689 7027 0
7358 7027 7689 0
7359 7358 7689 0
7692 7361 7690 0
7361 6685 7690 0
7693 7691 6691 0
7691 7348 6691 0
7692 7694 7363 0
7694 7362 7363 0
7361 7692 7363 0
6691 7695 7693 0
7696 7697 7698 0
7696 7699 7697 0
7697 7699 7364 0
7365 7700 7364 0
7694 7365 7362 0
7700 7365 7694 0
6691 7366 7695 0
7366 7701 7695 0
7702 7696 7698 0
7703 7702 7698 0
7367 7702 7037 0
7367 7699 7702 0
7699 7696 7702 0
7368 7699 7367 0
7364 7699 7368 0
7366 7369 7701 0
7370 7701 7369 0
7704 7370 7705 0
7370 7371 7705 0
7374 7375 7371 0
7371 7375 7705 0
7372 7373 7706 0
7703 7037 7702 0
7703 7707 7037 0
7707 7373 7037 0
7706 7708 7372 0
7040 7376 7709 0
7709 7376 7377 0
7377 7710 7709 0
7377 7711 7710 0
7708 7712 7372 0
7377 7046 7711 0
7046 7378 7711 0
7713 7043 7712 0
7043 7372 7712 0
7713 7380 7043 0
7381 7395 7714 0
7382 7381 7715 0
7382 7716 7384 0
7383 7384 7717 0
7384 7716 7717 0
7388 7380 7389 0
7383 7717 7391 0
7717 7718 7391 0
7391 7718 7392 0
7395 7396 7714 0
7392 7718 7719 0
7397 7392 7719 0
7398 7720 7721 0
7398 7397 7720 0
7397 7719 7720 0
7721 7722 7723 0
7720 7722 7721 0
7722 7724 7723 0
7398 7721 7401 0
7401 7721 7725 0
7725 7721 7723 0
7725 7723 7724 0
7401 7725 7407 0
7407 7725 7724 0
7396 7404 7714 0
7406 7407 7726 0
7066 7727 7402 0
7403 7728 7071 0
7406 7729 7075 0
7726 7729 7406 0
7066 7408 7730 0
7727 7066 7730 0
7728 7072 7071 0
7731 7072 7728 0
7729 7732 7075 0
7408 6368 7730 0
7072 7731 6741 0
7733 7409 7732 0
7409 7075 7732 0
6741 7731 7411 0
7409 7733 7410 0
6380 6757 7734 0
7734 6368 6380 0
7410 7735 7413 0
7735 7415 7413 0
7736 7415 7735 0
7416 7737 7738 0
7416 7411 7737 0
7415 7736 7082 0
7738 7418 7416 0
7082 7739 6764 0
7740 7417 7086 0
7741 7418 7738 0
7418 7741 7420 0
7739 6768 6764 0
7086 6401 7092 0
7419 7421 7742 0
6768 7743 6775 0
6074 7744 7092 0
7745 7420 7741 0
7420 7745 7423 0
7426 7746 7742 0
7426 7742 7424 0
7424 7742 7421 0
6775 7747 7097 0
7427 7748 7744 0
7427 7744 7425 0
7425 7744 6074 0
7745 7749 7750 0
7423 7745 7433 0
7426 7751 7746 0
7747 7100 7097 0
7752 7750 7749 0
7753 7752 7749 0
7745 7750 7754 0
7754 7750 7752 0
7745 7754 7433 0
7426 7105 7751 0
7100 7755 7430 0
7755 7756 7430 0
7427 7431 7748 0
7752 7753 7757 0
7754 7752 7757 0
7758 7754 7757 0
7758 7433 7754 0
7758 7759 7433 0
7759 7432 7433 0
7436 7756 7760 0
7756 7436 7430 0
7761 7431 6797 0
7432 7759 7437 0
7119 7762 7763 0
7763 7111 7119 0
7760 7120 7436 0
6797 6802 7761 0
7761 6802 7764 0
7113 7439 7765 0
7439 7766 7765 0
7441 7113 7765 0
7119 7128 7762 0
7120 7760 7445 0
7760 7767 7445 0
7764 6802 6453 0
7768 7442 7441 0
7123 7442 7768 0
7123 7768 7446 0
7446 7768 7769 0
7447 7446 7769 0
7770 7448 7769 0
7448 7447 7769 0
7771 7128 7451 0
7772 7452 7767 0
7767 7452 7445 0
7772 7773 7774 0
7774 7773 7453 0
7773 7775 7453 0
7764 6453 7453 0
7775 7764 7453 0
7448 7770 7454 0
6825 7454 7776 0
7454 7770 7776 0
7137 6825 7776 0
7777 7455 7776 0
7455 7137 7776 0
7455 7777 7456 0
7458 7457 7778 0
7778 7779 7458 0
7779 7459 7458 0
7780 7460 7459 0
7771 7451 7460 0
7780 7771 7460 0
7452 7772 7461 0
7453 6828 7461 0
7453 7461 7774 0
7774 7461 7772 0
7456 7777 7781 0
7777 7782 7781 0
7456 7783 7457 0
7784 7783 7456 0
7457 7783 7778 0
7783 7785 7778 0
7785 7786 7779 0
7785 7779 7778 0
7459 7779 7786 0
7787 7459 7786 0
7780 7459 7787 0
7788 7781 7782 0
7456 7781 7788 0
7784 7456 7788 0
7785 7783 7784 0
7789 7785 7784 0
6460 6459 7790 0
6462 7462 7142 0
6460 7790 6122 0
7790 7791 6122 0
6462 7463 7462 0
7464 7792 7463 0
7465 7792 7464 0
6122 7791 7467 0
7465 7793 7792 0
7466 7793 7465 0
7468 7793 7466 0
7794 7471 7470 0
7471 7146 7144 0
7794 7146 7471 0
7469 7472 7795 0
7472 7796 7795 0
6838 7796 7472 0
6468 7146 7797 0
6469 6468 7798 0
6468 7797 7798 0
7473 6469 7798 0
7474 7476 7796 0
7474 7796 6838 0
6841 7477 7799 0
7475 7800 7476 0
6841 7799 7801 0
6841 7801 7155 0
7155 7801 7802 0
7482 7155 7802 0
7475 7803 7800 0
7479 7803 7475 0
7151 7804 7479 0
7479 7804 7803 0
7478 7805 7480 0
7481 7805 7478 0
6849 7806 7481 0
7482 7802 7807 0
7482 7807 7483 0
7483 7807 7808 0
7804 7151 7487 0
6849 7484 7806 0
6851 7485 7484 0
7484 7485 7809 0
7483 7808 7810 0
7159 7483 7810 0
7159 7810 7811 0
7486 7159 7811 0
7160 7487 6852 0
7486 7812 7488 0
7488 7812 7813 0
7813 7489 7488 0
7814 7489 7813 0
7490 7815 7487 0
7490 7487 7160 0
7491 7157 7816 0
7817 7492 7491 0
7818 7489 7819 0
7819 7489 7814 0
7490 7820 7815 0
7491 7816 7817 0
7821 7492 7817 0
7822 7492 7821 0
7492 7822 7493 0
7493 7822 7823 0
7824 7494 7823 0
7494 7493 7823 0
7825 7818 7819 0
7489 7818 7826 0
7818 7825 7826 0
7489 7826 7495 0
7820 7490 7496 0
7494 7824 7497 0
7497 7824 7827 0
7828 7498 7827 0
7498 7497 7827 0
7176 7499 7158 0
7500 7829 7499 0
7826 7825 7830 0
7830 7825 7831 0
7495 7830 7501 0
7826 7830 7495 0
7496 7502 7820 0
7498 7828 7503 0
7503 7828 7832 0
7504 7503 7832 0
7504 7832 7505 0
7500 7506 7829 0
7508 7829 7506 0
7507 7829 7508 0
7831 7507 7509 0
7195 7831 7509 0
7830 7831 7195 0
7501 7830 7195 0
7505 7832 7833 0
7505 7833 7514 0
7514 7833 7834 0
7834 7516 7514 0
7835 7516 7834 0
7836 7510 7517 0
7518 7515 7837 0
7515 7838 7837 0
7515 7516 7838 0
7516 7835 7838 0
7839 7836 7517 0
7517 7206 7839 0
7837 7840 7518 0
7841 7837 7838 0
7840 7837 7841 0
7521 7520 7842 0
7843 7521 7842 0
7520 7518 7842 0
7844 7842 7518 0
7845 7844 7840 0
7844 7518 7840 0
7841 7845 7840 0
7521 7843 7846 0
7842 7847 7843 0
7847 7846 7843 0
7844 7847 7842 0
7848 7844 7845 0
7847 7844 7848 0
7524 7849 7839 0
7524 7839 7206 0
7850 7526 7525 0
7850 7525 7851 0
7846 7525 7521 0
7846 7852 7525 0
7852 7851 7525 0
7853 7852 7846 0
7847 7853 7846 0
7854 7855 7856 0
7857 7855 7854 0
7855 7858 7856 0
7849 7524 7528 0
7859 7854 7860 0
7535 7860 7856 0
7856 7860 7854 0
7856 7858 7861 0
7856 7861 7535 0
7535 7861 7536 0
7528 7862 7849 0
7862 7528 7530 0
7526 7863 7531 0
7850 7863 7526 0
7522 7213 7864 0
7864 7865 7522 0
7522 7865 7527 0
7527 7865 7533 0
7221 7859 7860 0
7221 7552 7859 0
7535 7221 7860 0
7536 7861 7866 0
7537 7536 7866 0
7862 7530 6888 0
7867 7862 6888 0
7213 7540 7864 0
7865 7864 7540 0
7868 7865 7540 0
7533 7865 7868 0
7533 7869 7532 0
7868 7869 7533 0
7532 7869 7541 0
7537 7866 7544 0
7226 7531 7547 0
7550 7870 7540 0
7868 7540 7871 0
7871 7540 7870 0
7869 7868 7871 0
7541 7869 7872 0
7869 7871 7872 0
7541 7873 7542 0
7872 7873 7541 0
7542 7873 7551 0
7874 7233 7544 0
7875 6888 7545 0
7875 7545 7876 0
7870 7550 7877 0
7878 7871 7870 0
7878 7879 7871 0
7871 7879 7872 0
7873 7872 7880 0
7880 7872 7879 0
7551 7880 7557 0
7873 7880 7551 0
7552 7559 7859 0
7859 7559 7881 0
7233 7874 7560 0
7545 7561 7876 0
7882 7883 7555 0
7882 7884 7883 0
7883 7563 7555 0
7882 7885 7884 0
7557 7880 7886 0
7880 7879 7886 0
7557 7886 7564 0
7887 7559 7558 0
7887 7888 7559 0
7888 7881 7559 0
7558 7235 7889 0
7887 7558 7889 0
7235 7565 7889 0
7561 7566 7876 0
7876 7566 7890 0
7564 7886 7568 0
7888 7887 7891 0
7887 7889 7891 0
7565 7569 7891 0
7889 7565 7891 0
7560 7892 7570 0
7571 6539 7893 0
7890 7566 7571 0
7893 7890 7571 0
7883 7894 7574 0
7563 7883 7574 0
7884 7895 7883 0
7895 7894 7883 0
7896 7884 7885 0
7895 7884 7896 0
7550 7577 7877 0
7574 7894 7578 0
7579 7578 7894 0
7895 7579 7894 0
7895 7580 7579 0
7895 7896 7580 0
7577 7897 7898 0
7577 7898 7877 0
7899 7879 7900 0
7901 7569 6546 0
7575 7582 7902 0
7575 7897 7577 0
7575 7902 7897 0
7902 7903 7897 0
7903 7898 7897 0
7583 7901 6546 0
7902 7584 7904 0
7582 7584 7902 0
7904 7903 7902 0
7583 7905 7901 0
7585 7905 7583 0
7581 7906 7586 0
7584 7907 7904 0
7908 7879 7899 0
7585 7909 7905 0
7585 7587 7909 0
7587 7910 7909 0
7587 7911 7910 0
7587 7588 7911 0
7906 7912 7586 0
7912 7589 7586 0
7590 7907 7584 0
7592 7594 7591 0
7912 7259 7589 0
7913 7259 7912 0
7590 6933 7593 0
7914 7879 7908 0
7886 7879 7914 0
7595 7259 7913 0
7886 7914 7915 0
7568 7915 7597 0
7886 7915 7568 0
6236 5577 7594 0
7913 7916 7599 0
7916 7598 7599 0
7595 7913 7599 0
7596 7606 7593 0
7914 7917 7918 0
7601 7915 7918 0
7915 7914 7918 0
7597 7915 7601 0
5577 7602 7594 0
7598 7919 7603 0
7917 7920 7620 0
7917 7620 7619 0
7615 7917 7619 0
7918 7917 7615 0
7601 7918 7615 0
7608 7607 7921 0
7608 7922 7609 0
7921 7922 7608 0
4984 7609 5915 0
7923 7924 7925 0
7926 7923 7925 0
7612 7611 7927 0
7612 7927 7613 0
7927 7614 7613 0
7606 7928 7929 0
7921 7607 7930 0
7931 7932 7922 0
7931 7922 7930 0
7930 7922 7921 0
7923 7933 7924 0
7603 7924 7610 0
7610 7924 7933 0
7927 7617 7934 0
7611 7617 7927 0
7614 7927 7934 0
7606 7614 7626 0
7626 7614 7934 0
7928 7606 7626 0
7935 7929 7928 0
7920 7936 7937 0
7920 7937 7620 0
7620 7938 7618 0
7607 7622 7930 0
7939 7931 7930 0
7622 7939 7930 0
7281 7610 7940 0
7610 7933 7940 0
7617 7624 7934 0
7626 7934 7624 0
7941 7928 7626 0
7941 7935 7928 0
7942 7937 7936 0
7943 7942 7936 0
7620 7937 7627 0
7938 7620 7627 0
7618 7938 7627 0
7622 7290 7939 0
7939 7290 7944 0
7940 7298 7281 0
7626 7305 7941 0
7305 7945 7941 0
7937 7942 7627 0
7627 7942 7946 0
7290 7947 7944 0
7947 7290 7634 0
7632 7945 7305 0
7946 7945 7632 0
7633 7946 7632 0
7627 7946 7633 0
7309 7948 7949 0
7948 7950 7949 0
7951 7947 7635 0
7947 7634 7635 0
7952 7953 7298 0
7953 7636 7298 0
7309 7949 7637 0
7638 7637 7949 0
7638 7949 7641 0
7641 7949 7950 0
7954 7950 7955 0
7641 7950 7954 0
7635 7639 7951 0
7639 7300 7951 0
7951 7300 6618 0
7636 7953 7301 0
7953 7956 7301 0
7640 7957 7306 0
7641 7954 7958 0
6618 7959 7951 0
7644 7301 7956 0
7960 7644 7956 0
7640 7315 7647 0
7641 7958 7642 0
7958 7643 7642 0
7958 7961 7643 0
6618 6267 7959 0
7962 7645 7644 0
7962 7644 7963 0
7963 7644 7960 0
7645 7962 7646 0
7961 7321 7643 0
7961 7964 7321 0
7965 7962 7963 0
7646 7962 7966 0
7646 7967 7648 0
7966 7967 7646 0
7321 7964 7649 0
7968 7962 7965 0
7966 7962 7968 0
7648 7969 7323 0
7648 7967 7969 0
7323 7969 7650 0
7327 7970 7329 0
7327 7649 7970 0
7967 7966 7968 0
7969 7967 7971 0
7650 7971 7652 0
7969 7971 7650 0
7968 7972 7967 0
7971 7967 7972 0
7655 7329 7973 0
7971 7972 7974 0
7974 7972 7975 0
7652 7971 7974 0
7652 7974 7656 0
7973 7976 7655 0
7976 7977 7655 0
6267 7659 7664 0
7974 7975 7978 0
7979 7974 7978 0
7656 7974 7979 0
7656 7979 7660 0
7661 7660 7980 0
7980 7662 7661 0
7981 7662 7980 0
7977 7663 7655 0
7977 7982 7663 0
7662 7981 6297 0
7981 7983 6297 0
7658 6671 7984 0
7665 7982 7985 0
7663 7982 7665 0
7982 7986 7985 0
7987 7664 7666 0
7988 7334 7989 0
7983 7334 6297 0
7989 7334 7983 0
7984 7668 7990 0
6671 7669 7668 0
7984 6671 7668 0
7991 7343 7667 0
7991 7667 7338 0
7988 7991 7337 0
7991 7338 7337 0
7334 7988 7337 0
7992 7993 7990 0
7994 7993 7992 0
7668 7992 7990 0
7666 7995 7996 0
7666 7670 7995 0
7674 7673 7997 0
7343 7998 7673 0
7991 7998 7343 0
7994 7018 7999 0
7992 7018 7994 0
7668 7018 7992 0
7665 7985 7671 0
7670 7672 7995 0
7674 7997 7675 0
7018 7676 7999 0
7671 7985 7678 0
7986 8000 7985 0
8000 7678 7985 0
7996 8000 7986 0
7679 8000 7995 0
7995 8000 7996 0
7672 7679 7995 0
7681 7999 7676 0
8000 7683 7678 0
7684 7683 8000 0
7679 7684 8000 0
7682 7688 8001 0
7681 7682 8001 0
7685 8002 7024 0
8002 7690 7024 0
8003 8001 7688 0
7688 7691 8003 0
8003 7691 8004 0
7692 8005 8006 0
7692 8006 8007 0
7690 8005 7692 0
7691 8008 8004 0
7693 8008 7691 0
7695 8009 7693 0
7693 8009 8008 0
7695 8010 8009 0
8009 8010 8011 0
8012 7694 8013 0
8007 7694 7692 0
8013 7694 8007 0
8010 7695 7701 0
7704 8010 7701 0
8014 8011 8010 0
8014 8010 8015 0
8015 8010 7704 0
8015 8016 8017 0
8014 8015 8017 0
7698 7697 8018 0
8019 7700 8012 0
8019 8020 7700 0
8020 7364 7700 0
7694 8012 7700 0
7704 7701 7370 0
8021 8015 7704 0
8016 8015 8021 0
8022 8017 8016 0
8022 8016 8021 0
7707 7703 8018 0
7703 7698 8018 0
7704 7705 8021 0
7375 8021 7705 0
8022 8021 7375 0
7375 7709 8022 0
7373 7707 7706 0
7375 7040 7709 0
7708 7706 8023 0
8024 7708 8023 0
7708 8024 7712 0
8025 8026 8027 0
8027 8028 8029 0
8026 8028 8027 0
7711 7378 8030 0
7379 8030 7378 0
8031 8030 7379 0
7379 8032 8031 0
8033 8032 8034 0
7712 8024 7713 0
8025 8027 8035 0
8029 7715 8027 0
7715 8035 8027 0
8036 7715 8029 0
7715 8037 8038 0
8036 8037 7715 0
7379 7385 8032 0
7385 8039 8032 0
8034 8032 8040 0
8040 8032 8039 0
8040 8041 8034 0
7381 7714 8035 0
7715 7381 8035 0
7716 7382 7715 0
7716 7715 8042 0
8042 7715 8038 0
8043 8042 8038 0
8038 8044 8043 0
7387 8039 7385 0
8040 8039 7387 0
8040 7387 7386 0
8040 7386 8041 0
8041 7386 8045 0
7717 7716 8042 0
8043 7717 8042 0
7717 8043 8044 0
7717 8044 7718 0
8045 7386 8046 0
7389 7403 6357 0
7718 8047 7719 0
7719 8047 7720 0
7722 8047 8048 0
7722 7720 8047 0
7386 7399 8046 0
7722 8049 7724 0
8049 8050 7724 0
8051 7407 8050 0
7407 7724 8050 0
8051 8052 8053 0
8051 8053 8054 0
7407 8054 7726 0
8051 8054 7407 0
7402 7727 8055 0
7403 8056 7728 0
8057 8053 8052 0
7729 8054 8057 0
8054 8053 8057 0
7726 8054 7729 0
7728 8056 7731 0
8056 8058 7731 0
7733 8057 8052 0
7729 7733 7732 0
8057 7733 7729 0
8058 8059 7731 0
7733 8060 7410 0
7731 8059 7411 0
8061 7735 8060 0
7735 7410 8060 0
7411 8059 7737 0
7735 8061 7736 0
7736 7739 7082 0
7086 8062 7740 0
7738 8063 7741 0
8063 8064 7741 0
7743 6768 7739 0
7092 8062 7086 0
7742 8065 7419 0
7419 8065 7414 0
7092 7744 8066 0
7744 8067 8066 0
7741 8068 7745 0
7742 7746 8065 0
6775 7743 7747 0
8067 7744 7748 0
8069 8067 7748 0
7745 8068 7749 0
7755 7100 7747 0
8069 7748 8070 0
8071 8070 7431 0
7431 8070 7748 0
7756 8072 7760 0
7756 8073 8072 0
7756 7755 8073 0
7761 8074 8071 0
7431 7761 8071 0
7437 7759 8075 0
7437 8075 7438 0
7760 8072 8076 0
8077 8072 8073 0
8077 8076 8072 0
8078 8074 7764 0
7764 8074 7761 0
7439 7438 8079 0
7439 8079 8080 0
7439 8080 8081 0
7766 7439 8081 0
7763 7762 7771 0
7762 7128 7771 0
8082 7763 7771 0
8076 8083 7767 0
7760 8076 7767 0
8084 8083 8076 0
8077 8084 8076 0
7764 8084 8078 0
8078 8084 8077 0
7765 7766 8085 0
8086 7765 8085 0
7441 8086 8087 0
7441 7765 8086 0
8087 7768 7441 0
7768 8088 7769 0
8089 8088 7768 0
8088 8090 7769 0
7769 8090 7770 0
7767 8083 7772 0
7773 7772 8083 0
8084 7773 8083 0
7775 7773 8084 0
7764 7775 8084 0
8089 7768 8087 0
8088 8091 8090 0
7770 8090 8092 0
8090 8091 8092 0
7770 8093 7776 0
8092 8093 7770 0
7776 8093 7777 0
8094 7771 7780 0
8095 8096 8097 0
8095 8098 8099 0
8096 8095 8099 0
8091 8098 8092 0
7777 8100 7782 0
8093 8100 7777 0
7785 8094 7786 0
8094 7787 7786 0
8094 7780 7787 0
8101 8095 8097 0
8102 8101 8097 0
8092 8098 8103 0
8104 8092 8103 0
8093 8092 8104 0
8100 8093 8104 0
7782 8100 8105 0
7782 8105 7788 0
7788 8106 7784 0
8107 7789 7784 0
8101 8108 8095 0
8098 8095 8108 0
8105 8100 8104 0
8109 8105 8104 0
8109 7788 8105 0
8110 7784 8106 0
8107 7784 8110 0
8098 8108 8103 0
8111 8104 8103 0
8109 8104 8112 0
8113 8109 8112 0
7788 8109 8113 0
8111 8103 8114 0
8115 8111 8114 0
8104 8111 8115 0
8116 7791 7790 0
7792 8117 7463 0
7463 8117 8118 0
7791 8119 7467 0
8116 8119 7791 0
7792 8120 8117 0
7793 8120 7792 0
7468 8121 7793 0
7793 8121 8120 0
7469 8121 7468 0
7470 7467 8119 0
7470 8119 7794 0
7469 7795 8121 0
7796 8122 7795 0
7795 8122 8123 0
7794 8119 8124 0
7797 8125 7798 0
7798 8125 7473 0
7796 8126 8122 0
7476 8126 7796 0
8125 7797 8127 0
7473 8125 7477 0
7477 8125 7799 0
7800 8126 7476 0
7800 8128 8126 0
7800 7803 8128 0
7803 8129 8128 0
7804 8129 7803 0
7480 7805 8130 0
8130 7805 8131 0
8131 7805 7481 0
7481 7806 8131 0
7808 7807 8132 0
7804 7487 8129 0
7480 8133 8134 0
7480 8134 7153 0
8130 8133 7480 0
7806 7484 8135 0
7484 8136 8135 0
8137 8136 7809 0
7809 8136 7484 0
7809 7485 8138 0
8137 7809 8138 0
7810 8132 8139 0
7810 7808 8132 0
7487 8140 8129 0
7153 8134 7157 0
8136 8137 8141 0
8137 8138 8141 0
7485 8142 8138 0
8138 8142 8141 0
7811 7810 8143 0
7812 7811 8144 0
7812 7486 7811 0
7812 8145 7813 0
8144 8145 7812 0
7813 8145 7814 0
7487 7815 8140 0
7157 8134 7816 0
8142 8146 8141 0
8147 8146 8142 0
7158 8148 8147 0
7158 8147 8142 0
7158 8142 7485 0
7814 8145 7819 0
7820 8149 7815 0
7822 8150 7823 0
7821 8150 7822 0
7823 8150 7824 0
7158 8151 8148 0
8152 8144 8153 0
8145 8144 8152 0
7819 8152 7825 0
8145 8152 7819 0
8150 7821 8154 0
7824 8150 8155 0
8150 8154 8155 0
7824 8156 7827 0
8155 8156 7824 0
7827 8156 7828 0
7499 8157 7158 0
7158 8157 8158 0
7829 8157 7499 0
8153 8157 7507 0
8157 7829 7507 0
8152 8153 7507 0
7831 8152 7507 0
7825 8152 7831 0
8159 7182 7183 0
8155 8160 8156 0
7828 8156 8161 0
8156 8160 8161 0
8161 7832 7828 0
7183 8162 8159 0
7510 8162 7183 0
7833 7832 8163 0
7833 8164 7834 0
8163 8164 7833 0
7834 8164 7835 0
8164 8163 8165 0
8165 8163 8166 0
7835 8165 7838 0
8164 8165 7835 0
8167 7510 7836 0
8167 7836 8168 0
8168 7836 7839 0
8165 8166 8169 0
8170 8165 8169 0
8170 7838 8165 0
8170 8171 7838 0
8171 7841 7838 0
8172 8168 7839 0
7845 7841 8173 0
7841 8171 8173 0
7849 8172 7839 0
8174 7845 8173 0
8174 8175 7845 0
8175 7848 7845 0
8174 8176 8175 0
8177 8178 8179 0
8177 8180 8181 0
8179 8180 8177 0
8180 8182 8181 0
7850 7851 8183 0
7852 8184 7851 0
8185 8184 7853 0
7853 8184 7852 0
8185 7853 8186 0
7853 7847 8186 0
7847 7848 8186 0
8175 8187 7848 0
8187 8186 7848 0
8188 8175 8176 0
8187 8175 8188 0
7857 7854 8189 0
7857 8189 8181 0
8181 8189 8177 0
8181 8182 8190 0
8181 8190 7857 0
7857 8190 7855 0
8190 7858 7855 0
8191 7858 8190 0
8183 8192 7850 0
8185 8186 8193 0
7854 7859 8189 0
7861 7858 8194 0
8194 7858 8191 0
7850 8192 7863 0
8195 8193 8186 0
7861 8194 8196 0
7861 8196 7866 0
7866 8196 8197 0
8198 7863 8192 0
7863 8198 7531 0
7866 8197 8199 0
7544 7866 8199 0
8200 7862 7867 0
8200 7867 8201 0
8201 7867 6888 0
8198 8202 7531 0
8202 7547 7531 0
8203 8178 8177 0
8204 8178 8203 0
8189 8203 8177 0
8205 7544 8199 0
7875 8201 6888 0
7547 8202 7555 0
8202 8206 7555 0
7870 7877 8207 0
7870 8207 7878 0
8204 8203 8208 0
8203 8189 8208 0
7859 7881 8208 0
8189 7859 8208 0
8205 7874 7544 0
8205 7892 7874 0
7892 7560 7874 0
7555 8206 8209 0
7882 7555 8209 0
8209 7885 7882 0
8210 7885 8209 0
7878 8207 8211 0
8211 8207 8212 0
7879 7878 8213 0
7878 8211 8213 0
8208 7881 8214 0
8214 7881 7888 0
8215 7875 7890 0
7875 7876 7890 0
8210 8216 7885 0
8211 7900 8213 0
8213 7900 7879 0
7570 7892 8217 0
6539 7570 8218 0
7570 8217 8218 0
8215 7890 7893 0
8215 7893 8218 0
8218 7893 6539 0
7885 8216 7896 0
8219 8212 8207 0
7891 8220 7888 0
7891 7569 8220 0
7896 8221 7580 0
8207 7898 8222 0
7877 7898 8207 0
8219 8207 8223 0
8223 8224 8219 0
8225 8220 7569 0
8225 7569 7901 0
8221 7581 7580 0
8226 7581 8221 0
7898 7903 8222 0
8207 8222 8223 0
7581 8226 7906 0
8226 8227 7906 0
7903 7904 8228 0
7903 8228 8222 0
8228 7907 8222 0
7907 8224 8223 0
7907 8223 8222 0
7901 7905 8229 0
7906 8227 8230 0
7904 7907 8228 0
7899 8231 7908 0
8231 8232 7908 0
7909 8233 7905 0
7910 8233 7909 0
8230 7912 7906 0
8234 7908 8232 0
7910 8235 8233 0
7911 8235 7910 0
8236 8235 7911 0
8230 7913 7912 0
8237 7913 8230 0
8238 8239 8240 0
8241 8239 8242 0
8242 8243 8244 0
8241 8242 8244 0
8245 7913 8237 0
7590 7593 8246 0
8246 8247 7590 0
8234 8248 8249 0
8249 8248 8250 0
7908 8249 7914 0
8234 8249 7908 0
8251 8239 8238 0
8242 8239 8251 0
8243 8242 8252 0
8252 8242 8251 0
7919 7598 8253 0
7919 8253 8243 0
7919 8243 8252 0
8244 8243 8253 0
7916 8254 7598 0
7598 8254 8253 0
8245 7916 7913 0
8254 7916 8245 0
7593 7606 8255 0
8246 7593 8255 0
8250 8256 7920 0
7917 8249 7920 0
8249 8250 7920 0
7914 8249 7917 0
7924 8251 8238 0
7924 8238 7925 0
7603 8251 7924 0
8252 8251 7603 0
7919 8252 7603 0
7609 7922 5915 0
4985 5915 8257 0
8257 7602 4985 0
7925 8238 7926 0
8258 8246 8255 0
8258 8255 7929 0
8258 7929 8259 0
7606 7929 8255 0
7932 8260 8261 0
7931 8260 7932 0
5915 7922 7932 0
5915 7932 8262 0
8262 7932 8261 0
8263 7923 7926 0
8263 7926 8238 0
7923 8263 7933 0
8264 8259 7935 0
8259 7929 7935 0
7931 7939 8260 0
7933 8265 7940 0
8263 8265 7933 0
8264 7941 7945 0
7935 7941 8264 0
8266 8264 8267 0
8267 8264 7945 0
8267 7942 7943 0
8267 7943 8266 0
8266 7943 8268 0
8269 8268 7936 0
8268 7943 7936 0
8270 8271 7307 0
7939 7944 8260 0
7940 8272 7298 0
8265 8272 7940 0
8267 7945 7946 0
7942 8267 7946 0
8273 8274 8275 0
8273 8276 8277 0
8275 8276 8273 0
8270 8277 8276 0
7307 8277 8270 0
8271 7309 7307 0
7948 7309 8271 0
7948 8271 8278 0
8279 7948 8278 0
8280 7944 7947 0
8272 8281 7298 0
8282 8274 8273 0
8283 8274 8282 0
7307 8282 8277 0
8277 8282 8273 0
8279 7950 7948 0
8279 7955 7950 0
8279 8284 7955 0
8284 8285 7955 0
7951 8280 7947 0
7298 8281 8286 0
7298 8286 7952 0
7952 8286 8287 0
8287 7953 7952 0
8288 7953 8287 0
