#!ascii version written be Caret
20658 41312
3764 3438 3437 0
3105 3758 3441 0
3765 3715 3398 0
3440 3765 3398 0
3766 3767 3431 0
3431 3768 3108 0
3769 3764 3437 0
3761 3441 3758 0
3444 3770 3771 0
3443 3770 3444 0
3440 3444 3772 0
3772 3444 3771 0
3765 3440 3772 0
3773 3774 3750 0
3762 3750 3774 0
3775 3767 3766 0
3776 3775 3766 0
3431 3767 3777 0
3777 3767 3775 0
3448 3768 3777 0
3768 3431 3777 0
3108 3768 3448 0
3110 3769 3437 0
3110 3456 3769 0
3446 3441 3778 0
3778 3441 3761 0
3778 3761 3779 0
3780 3770 3447 0
3447 3770 3443 0
3452 3775 3776 0
3452 3776 3781 0
3448 3775 3452 0
3777 3775 3448 0
3110 3450 3456 0
3446 3778 3451 0
3451 3778 3779 0
3780 3447 3782 0
3783 3774 3773 0
3784 3452 3781 0
3784 3781 3776 0
3452 3784 3453 0
3449 3453 3785 0
3449 3785 3454 0
3786 3451 3779 0
3782 3787 3788 0
3447 3120 3787 0
3782 3447 3787 0
3789 3762 3774 0
3784 3790 3453 0
3453 3455 3785 0
3454 3785 3455 0
3451 3791 3460 0
3117 3451 3460 0
3786 3791 3451 0
3788 3792 3786 0
3126 3792 3787 0
3787 3792 3788 0
3120 3126 3787 0
3793 3456 3459 0
3453 3790 3123 0
3461 3794 3459 0
3459 3794 3793 0
3460 3791 3795 0
3795 3791 3786 0
3792 3796 3786 0
3796 3795 3786 0
3126 3462 3796 0
3792 3126 3796 0
3123 3797 3463 0
3790 3797 3123 0
3798 3794 3461 0
3464 3798 3461 0
3460 3795 3465 0
3467 3465 3795 0
3796 3467 3795 0
3462 3467 3796 0
3463 3799 3468 0
3797 3799 3463 0
3464 3130 3800 0
3469 3799 3801 0
3468 3799 3469 0
3800 3130 3134 0
3802 3800 3134 0
3469 3801 2829 0
3134 3135 3802 0
3802 3135 3803 0
2829 3139 2478 0
3803 3135 3137 0
3804 3803 3137 0
3137 2488 3804 0
3804 2488 3805 0
2488 3138 3805 0
3138 3471 3805 0
3471 3472 3806 0
3806 3805 3471 0
3473 3806 3472 0
3473 3807 3806 0
3473 2846 3807 0
3475 3807 2846 0
3475 3806 3807 0
3474 3808 3475 0
3474 3809 3810 0
3808 3474 3810 0
3474 2847 3811 0
3809 3474 3812 0
3812 3474 3811 0
3813 3810 3809 0
2847 3476 3811 0
3477 3811 3476 0
3812 3811 3477 0
3480 3812 3477 0
3480 3809 3812 0
3814 3813 3809 0
3814 3809 3815 0
3815 3809 3480 0
3815 3816 3817 0
3814 3815 3817 0
3142 3470 3478 0
3470 3818 3478 0
3815 3480 3481 0
3484 3815 3481 0
3484 3816 3815 0
3484 3819 3816 0
3478 3818 3485 0
3485 3482 3478 0
3820 3819 3484 0
3483 3820 3484 0
3483 3488 3821 0
2511 3485 3493 0
3491 3490 3822 0
3821 3488 3491 0
3822 3821 3491 0
3823 3158 3493 0
3158 3823 3824 0
3158 3824 3159 0
3492 3159 3824 0
2858 2859 3825 0
3495 3826 3827 0
3494 3495 3827 0
3825 3826 3496 0
3826 3495 3496 0
2858 3825 3496 0
3828 3162 3161 0
3494 3827 3497 0
2523 2867 3829 0
3499 2523 3830 0
2523 3829 3830 0
3830 2525 3499 0
2525 3830 3831 0
2525 3831 3832 0
2525 3832 3168 0
3833 2872 2873 0
3503 3834 3500 0
3503 2545 3834 0
3835 3504 3501 0
3836 3833 3505 0
3505 3833 2873 0
3502 3837 3838 0
3504 3835 3506 0
3507 3506 3835 0
3836 3507 3835 0
3505 3507 3836 0
3180 3839 3840 0
3182 3180 3840 0
3180 3510 3839 0
2884 3510 3180 0
3508 3502 3838 0
3182 3840 3183 0
3840 3841 3183 0
3510 2888 3842 0
2888 3843 3842 0
3514 3843 3184 0
3184 3843 2888 0
3188 3508 3838 0
3512 3183 3841 0
3513 3844 3514 0
3844 3513 3515 0
3838 3845 3188 0
3188 3845 2896 0
3189 2896 3846 0
2896 3845 3846 0
3841 3847 3516 0
3512 3841 3516 0
3515 3848 3844 0
3191 3848 3515 0
2899 3849 3191 0
3191 3849 3848 0
2899 3850 3849 0
3189 3846 3518 0
3846 3851 3518 0
3851 3852 3518 0
1200 3853 1199 0
3853 1200 2574 0
3847 3854 3516 0
2899 3519 3850 0
3520 3855 3519 0
3856 3518 3852 0
3516 3854 3521 0
3520 3197 3855 0
3855 3197 3857 0
3857 3197 3858 0
3525 3518 3856 0
3521 3854 3528 0
3854 3859 3528 0
3197 3860 3858 0
3529 3860 3197 0
3861 3860 3202 0
3202 3860 3529 0
3862 3863 2574 0
3864 3527 3528 0
3864 3528 3859 0
3527 3864 3530 0
3526 3865 3531 0
3866 3865 3526 0
3867 3866 3868 0
2574 1647 3862 0
3530 3869 3532 0
3864 3869 3530 0
3202 3870 3871 0
3202 3871 3861 0
3202 3534 3870 0
3531 3865 3535 0
2580 3862 1647 0
3869 3872 3532 0
3873 3871 3870 0
3874 3871 3873 0
3870 3534 3873 0
3534 3211 3875 0
3211 3535 3875 0
3535 3865 3875 0
3540 3538 3872 0
3872 3538 3532 0
3874 3876 3877 0
3874 3873 3876 0
3873 3534 3876 0
3875 3876 3534 0
3878 3866 3867 0
3540 3879 3541 0
3879 3542 3541 0
3880 3877 3876 0
3875 3880 3876 0
3866 3878 3865 0
3542 3879 3881 0
3881 3220 3542 0
3882 3877 3880 0
3865 3878 3875 0
3878 3880 3875 0
3220 3881 3545 0
3882 3880 3883 0
3878 3883 3880 0
3543 3546 3884 0
3543 3884 3547 0
3552 3228 3545 0
3885 3883 3878 0
3547 3884 3886 0
3547 3886 3549 0
3549 3887 3550 0
3886 3887 3549 0
3233 3552 3888 0
3888 3234 3233 0
3889 3234 3888 0
3884 3553 3890 0
3546 3553 3884 0
3558 3886 3890 0
3890 3886 3884 0
3887 3886 3891 0
3550 3887 3892 0
3887 3891 3892 0
3550 3892 3554 0
3234 3889 3556 0
3889 3893 3556 0
3553 2932 3890 0
3890 2932 3558 0
3892 3894 3554 0
3894 3557 3554 0
3551 3895 3896 0
3555 3895 3551 0
3897 3558 3559 0
3556 3893 3898 0
3237 3556 3898 0
3899 3239 3898 0
3239 3237 3898 0
3559 3243 3900 0
3557 3894 3901 0
3561 3557 3901 0
3902 2930 3560 0
3902 3560 3903 0
3903 3560 3562 0
3563 3239 3899 0
3900 3243 3564 0
3903 3562 3565 0
3566 3904 3905 0
3566 3563 3904 0
2939 3906 3567 0
3907 3905 3904 0
3908 3907 3904 0
3566 3909 3248 0
3566 3905 3909 0
3905 3907 3909 0
3564 3249 3900 0
3900 3249 3910 0
3567 3911 3569 0
3906 3911 3567 0
3254 3568 3570 0
3907 3912 3571 0
3907 3571 3909 0
3909 3571 3248 0
3249 3572 3910 0
3569 3911 3913 0
3911 3914 3913 0
3569 3913 3573 0
3915 3571 3912 0
3916 3915 3912 0
3571 3915 3574 0
3917 3910 3572 0
3914 3918 3913 0
3573 3918 3576 0
3913 3918 3573 0
3915 3919 3577 0
3915 3577 3574 0
3917 3572 3575 0
3917 3575 3920 0
3576 3918 3921 0
3918 3922 3921 0
3576 3921 3256 0
3575 3261 3920 0
3922 3923 3921 0
3256 3923 3267 0
3921 3923 3256 0
3579 3577 3924 0
3579 3924 3264 0
3267 3923 3925 0
3926 3577 3919 0
3924 3577 3926 0
3264 3924 3927 0
3264 3927 3270 0
3928 3926 3919 0
3927 3924 3929 0
3270 3929 3587 0
3927 3929 3270 0
3582 3930 3581 0
3931 3932 3925 0
3267 3933 2657 0
3267 3925 3933 0
3925 3932 3933 0
3926 3934 3924 0
3929 3924 3934 0
2657 3932 3589 0
3933 3932 2657 0
3585 3588 3583 0
3929 3934 3935 0
3929 3936 3587 0
3587 3936 3590 0
3589 3932 3937 0
3589 3937 3593 0
3593 3937 3938 0
3594 3593 3938 0
3583 3588 3594 0
3583 3594 3939 0
3939 3594 3938 0
3935 3940 3929 0
3936 3929 3940 0
3590 3936 3279 0
3279 3936 3613 0
3941 3940 3942 0
3286 3943 3598 0
3286 3944 3943 0
3599 3944 3286 0
3940 3941 3605 0
3936 3940 3945 0
3945 3940 3605 0
3936 3945 3613 0
3599 3946 3944 0
3600 3946 3599 0
3947 3946 3600 0
3600 3601 3947 0
3601 3948 3947 0
3602 3948 3601 0
3602 3603 3949 0
3603 3604 3949 0
3605 3941 3606 0
3945 3605 3607 0
3613 3945 3607 0
3602 3950 3948 0
3949 3950 3602 0
3606 3951 3612 0
3941 3951 3606 0
3604 3610 3949 0
3612 3951 3618 0
3618 3952 3619 0
3626 3953 3622 0
3622 3953 3307 0
3628 3952 3954 0
3619 3952 3628 0
3621 3632 3955 0
3621 3955 3626 0
3307 3953 3956 0
3627 3957 3623 0
3624 3623 3957 0
3958 3634 3954 0
3634 3628 3954 0
3956 3953 3959 0
3307 3959 2693 0
3956 3959 3307 0
3004 3960 3308 0
3627 3309 3308 0
3957 3627 3308 0
3958 3318 3634 0
3632 3635 3955 0
3626 3955 3635 0
3953 3626 3961 0
3962 3959 3963 0
3963 3959 3953 0
2693 3959 3962 0
2693 3962 2694 0
2694 3962 3964 0
3964 3321 2694 0
3004 3636 3965 0
3318 3966 3326 0
3014 3961 3635 0
3961 3626 3635 0
3953 3961 3963 0
3967 3965 3636 0
3636 3637 3967 0
3326 3966 3331 0
3961 3328 3968 0
3014 3328 3961 0
3637 3969 3967 0
3963 3961 3970 0
3970 3961 3968 0
3970 3971 3963 0
3969 3637 3972 0
3972 3637 3639 0
3966 3973 3331 0
3328 3641 3968 0
3641 3974 3968 0
3974 3970 3968 0
3975 3970 3974 0
3973 3976 3652 0
3331 3973 3652 0
3975 3974 3977 0
3638 3321 3643 0
3321 3978 3643 0
3979 3639 3335 0
3639 3642 3335 0
3652 3980 3657 0
3976 3980 3652 0
3645 3647 3981 0
3982 3645 3981 0
3974 3649 3983 0
3641 3649 3974 0
3977 3974 3983 0
3643 3978 3650 0
3651 3979 3335 0
3984 3657 3980 0
3984 3985 3657 0
3661 3986 3987 0
3661 3660 3986 0
3660 3988 3986 0
3654 3661 3987 0
3989 3654 3987 0
3647 3654 3989 0
3656 3645 3982 0
3978 3990 3650 0
3657 3985 3658 0
3991 3988 3662 0
3662 3988 3660 0
3664 3656 3992 0
3992 3656 3982 0
3667 3983 3649 0
3667 3993 3983 0
3993 3977 3983 0
3994 3977 3993 0
3650 3990 3668 0
3995 3996 3997 0
3669 3995 3997 0
3669 3997 3337 0
3985 3998 3658 0
3988 3991 3999 0
3991 4000 3999 0
3662 3670 4000 0
3991 3662 4000 0
3992 3665 3664 0
3992 4001 3665 0
4001 3348 3665 0
3993 3366 3675 0
3667 3366 3993 0
3994 3993 3675 0
4002 3994 4003 0
4003 3994 3675 0
3990 4002 4003 0
3990 4003 3668 0
4004 3996 3995 0
4005 3996 4004 0
3669 4006 3995 0
3995 4006 4004 0
3669 3048 4006 0
3658 3998 4007 0
4007 3672 3658 0
3679 4008 3999 0
3679 3684 4008 0
3684 4009 4008 0
3673 3679 3999 0
4000 3673 3999 0
3670 3673 4000 0
3348 4001 3364 0
4001 4010 3364 0
4003 3675 3676 0
3668 4003 3676 0
4005 4004 4011 0
4004 4006 4011 0
3048 3677 4011 0
4006 3048 4011 0
3672 4007 3369 0
4007 4012 3369 0
4009 3684 4013 0
4014 3680 4010 0
3680 3364 4010 0
3677 4015 4016 0
3677 4016 4011 0
3677 3683 4015 0
4017 3381 4012 0
4012 3381 3369 0
4018 4013 3685 0
3685 4013 3684 0
4014 4019 3680 0
4020 4015 3686 0
4015 3683 3686 0
3381 4017 3688 0
3690 3688 4017 0
3690 4017 4021 0
4018 3687 4017 0
3687 4021 4017 0
4018 3685 3687 0
4022 4023 4024 0
4025 4022 4024 0
4019 4024 4023 0
3680 4019 3372 0
3686 4026 4020 0
3384 3690 4021 0
3687 3384 4021 0
4023 4022 4027 0
4019 4023 4028 0
4028 4023 4027 0
3372 4028 3693 0
4019 4028 3372 0
3686 3691 4026 0
4029 3696 4030 0
4027 3696 3695 0
3697 4027 3695 0
4028 4027 3697 0
3693 4028 3697 0
3385 3699 4031 0
3385 4031 3691 0
3691 4031 4026 0
4029 4032 4033 0
3696 3700 3694 0
3391 4031 3699 0
4029 4033 4034 0
4034 4033 4035 0
3696 4029 4034 0
4036 4037 4038 0
4039 3704 4037 0
3704 3706 4037 0
4040 3704 4039 0
4041 4031 3391 0
4033 4042 4043 0
4043 4042 3709 0
3718 4035 4043 0
4035 4033 4043 0
3720 4035 3718 0
4034 4035 3720 0
3720 4044 4034 0
4044 3696 4034 0
3700 3696 4044 0
3700 4045 3701 0
3701 4045 3702 0
4046 3712 4037 0
3706 4046 4037 0
3391 3708 4041 0
4043 3709 3711 0
3718 4043 3711 0
4038 4037 4047 0
4037 4048 4047 0
3712 3714 4048 0
3712 4048 4037 0
3713 3712 4046 0
3706 3713 4046 0
3707 3704 4049 0
4049 3704 4040 0
4049 4040 4050 0
3708 3715 4041 0
4041 3715 4051 0
3720 3727 4044 0
4045 3700 4052 0
4052 3700 3728 0
3702 4052 3721 0
4045 4052 3702 0
4047 3730 4053 0
4048 4054 4047 0
4054 3730 4047 0
3714 3733 4054 0
4048 3714 4054 0
3707 4049 3722 0
3722 4049 4055 0
4056 4057 3723 0
3725 4056 3723 0
3725 3724 4058 0
3725 4058 4059 0
4060 4061 3716 0
4044 3727 4062 0
3700 4044 4063 0
4063 4044 4062 0
3728 4063 3729 0
3728 3700 4063 0
4052 3728 3407 0
3721 4052 3407 0
4064 4065 4053 0
4066 4065 4064 0
3730 3732 4064 0
3730 4064 4053 0
4054 3731 3730 0
3733 3731 4054 0
3722 4055 3737 0
3723 4057 3750 0
4058 3738 4067 0
3724 3738 4058 0
4068 4058 4067 0
3739 3716 4061 0
3727 3740 4069 0
3727 4069 4062 0
4070 4066 4064 0
3732 3742 4070 0
4064 3732 4070 0
4055 4071 3737 0
3762 4067 3738 0
3762 4072 4067 0
4072 4068 4067 0
3739 4073 3744 0
4069 3745 4074 0
3740 3745 4069 0
4062 4069 4074 0
3729 4063 3746 0
3748 3757 4070 0
3757 4075 4070 0
3742 3748 4070 0
4071 4076 3749 0
4071 3749 3737 0
3762 4077 4072 0
3744 4073 3751 0
3755 4074 3745 0
4063 4062 4078 0
4063 4078 3746 0
4075 3757 3756 0
4079 4075 3756 0
3749 4076 3759 0
4080 4076 4071 0
4080 3759 4076 0
4051 3715 4081 0
3755 3760 4082 0
3755 4082 4074 0
4062 4074 4078 0
4078 4074 3766 0
3746 4078 3431 0
3764 4079 3438 0
3438 4079 3756 0
3761 3759 4083 0
4083 3759 4080 0
4083 4080 4084 0
4085 4086 4081 0
4085 4081 3715 0
3751 4087 4088 0
3751 4088 3763 0
3431 4078 3766 0
4084 4089 4083 0
4084 4090 4089 0
4090 4091 4089 0
4086 4085 4091 0
4085 4092 4091 0
3715 3765 4092 0
4085 3715 4092 0
3763 4088 4093 0
3763 4082 3760 0
4093 4082 3763 0
4074 4082 3766 0
3771 3770 3780 0
3771 3780 4091 0
4091 3780 4089 0
3772 3771 4091 0
4092 3772 4091 0
3765 3772 4092 0
4077 3762 4094 0
4087 4077 4094 0
3766 4082 4095 0
3769 3456 4096 0
3764 3769 4096 0
3761 4083 3779 0
4089 3780 4083 0
4082 4093 4097 0
4097 4095 4082 0
3766 4095 4098 0
3780 4099 4083 0
4099 3779 4083 0
3780 3782 4099 0
3773 4100 3783 0
4087 4094 4101 0
4088 4087 4101 0
4093 4088 4097 0
4097 4088 4101 0
3766 4098 4102 0
3776 3766 3784 0
3788 3786 3779 0
4099 3788 3779 0
3782 3788 4099 0
3762 3789 4094 0
4097 4101 4103 0
4104 4097 4103 0
3784 3766 3790 0
4096 3456 4105 0
4106 3774 3783 0
4106 3783 4107 0
4107 3783 4100 0
4106 4108 3774 0
4108 3789 3774 0
3789 4109 4094 0
4101 4094 4109 0
4110 4111 4102 0
4102 4111 3766 0
3766 4111 3790 0
3456 3793 4105 0
4111 4110 4112 0
4112 3790 4111 0
3793 3794 4105 0
4105 3794 4113 0
3790 4112 3797 0
3794 3798 4113 0
4114 3797 4115 0
3799 3797 4114 0
4116 3799 4114 0
3801 3799 4116 0
3802 4117 3800 0
3800 4117 3464 0
3801 4118 2829 0
4116 4118 3801 0
3802 3803 4119 0
4119 4117 3802 0
4120 3139 4118 0
3139 2829 4118 0
3804 4119 3803 0
3804 4121 4119 0
4121 4122 4119 0
4123 4117 4119 0
4122 4123 4119 0
4121 3804 4124 0
4124 4122 4121 0
4120 4125 3139 0
3804 3805 4124 0
4125 3470 3139 0
3470 4125 4126 0
4126 4127 3470 0
3806 4128 3805 0
3806 3475 4128 0
3475 3808 4128 0
4128 3808 4129 0
3808 3810 4129 0
3810 4130 4129 0
3813 4130 3810 0
3813 4131 4132 0
3813 4132 4130 0
4127 4133 3470 0
3813 3814 4131 0
4131 3814 4134 0
3814 3817 4134 0
3816 4135 3817 0
3817 4135 4134 0
4135 3816 4136 0
3485 3818 4133 0
4133 3818 3470 0
4137 4136 3816 0
3819 4137 3816 0
3483 3821 4138 0
3483 4138 3820 0
3820 4138 3819 0
3493 4139 3823 0
4139 3824 3823 0
3489 4140 3490 0
3490 4140 3822 0
4138 3821 3822 0
4138 3822 4141 0
3824 4139 4142 0
3492 3824 4142 0
3156 3492 4143 0
3492 4142 4143 0
4140 3489 3156 0
4143 4140 3156 0
4144 3826 3825 0
3827 3826 4144 0
3162 3828 2518 0
3161 4145 3828 0
3161 2520 4145 0
4146 3498 3497 0
3498 4146 4147 0
3166 3498 4147 0
2867 3166 4147 0
2867 4147 3829 0
3830 3829 4148 0
3830 4148 3831 0
3831 4148 4149 0
4150 2868 3167 0
3831 4149 3832 0
3167 3170 4150 0
2871 4151 4152 0
3501 2871 4152 0
2872 4153 2871 0
2871 4153 4151 0
4153 2872 3833 0
4154 4153 3833 0
3502 3169 4155 0
3169 4156 4155 0
3837 3502 4155 0
2545 4157 3834 0
3501 4152 4158 0
3835 3501 4158 0
3836 3835 4159 0
3835 4158 4159 0
4154 3833 3836 0
4159 4154 3836 0
3838 3837 4155 0
1912 4157 2545 0
4160 4161 4162 0
4161 4163 4162 0
4163 3840 3839 0
4163 3839 4162 0
3510 4164 3839 0
3839 4164 4162 0
4163 4161 3847 0
3840 3847 3841 0
4163 3847 3840 0
3510 4165 4164 0
3842 4165 3510 0
3842 3843 4165 0
3514 4166 3843 0
4167 3838 4168 0
3847 4161 4169 0
4166 3514 4170 0
3514 3844 4170 0
3844 4171 4170 0
3845 3838 4167 0
3845 4167 3846 0
4172 3851 3846 0
4169 4173 4174 0
4169 4174 4175 0
3847 4169 4175 0
3844 3848 4171 0
3849 4171 3848 0
4176 4171 3849 0
4176 3849 4177 0
3849 3850 4177 0
4178 3852 4172 0
4172 3852 3851 0
4175 4174 4173 0
3847 4175 3854 0
3519 4179 3850 0
3519 3855 4179 0
4179 3855 3857 0
4180 4179 3857 0
3852 4178 3856 0
4181 4175 4173 0
4175 4181 3854 0
4182 4180 3858 0
4180 3857 3858 0
3526 3525 4183 0
3525 3856 4183 0
3854 4184 3859 0
4181 4184 3854 0
3858 3860 4182 0
3860 3861 4182 0
4182 3861 4185 0
3526 4183 3866 0
4183 3868 3866 0
4183 4186 3868 0
4186 4187 3868 0
4184 4188 3859 0
4188 3864 3859 0
4185 3861 4189 0
4187 3867 3868 0
4190 3869 4188 0
4188 3869 3864 0
3871 4189 3861 0
4191 4189 3871 0
2580 4192 3862 0
3872 3869 4190 0
3872 4190 4193 0
4193 4190 4194 0
4195 4193 4194 0
3871 3874 4191 0
4196 4192 2580 0
3872 4193 3540 0
3879 3540 4193 0
3879 4193 4197 0
4197 4193 4195 0
4198 4197 4195 0
4199 4200 4201 0
4202 4191 3874 0
3874 3877 4202 0
3878 3867 4203 0
4199 4197 4198 0
4202 3877 4204 0
4205 3878 4203 0
2580 1949 4196 0
3879 4197 3881 0
4201 4197 4199 0
3877 3882 4204 0
4206 3878 4205 0
4197 4207 3545 0
3881 4197 3545 0
4201 4207 4197 0
4201 4208 4207 0
4209 4210 3882 0
4210 4204 3882 0
4206 4211 3878 0
1949 2601 3232 0
3552 3545 4207 0
3552 4207 4212 0
4213 4212 4207 0
4208 4214 4207 0
4214 4213 4207 0
4214 4208 4215 0
3882 3883 4216 0
3882 4216 4209 0
3883 3885 4216 0
3885 3878 4211 0
3885 4211 4217 0
4218 3232 3551 0
3888 3552 4212 0
4213 3888 4212 0
4219 3889 4213 0
4219 4220 3889 0
3888 4213 3889 0
4214 4219 4213 0
4221 4210 4209 0
4222 4210 4221 0
4216 4221 4209 0
3885 4223 4216 0
4223 3885 4217 0
3886 3558 4224 0
3886 4224 3891 0
3551 3896 4218 0
3889 4220 3893 0
4222 4225 4226 0
4222 4221 4225 0
4221 4216 4225 0
4224 3897 4227 0
3558 3897 4224 0
3891 4224 4228 0
4224 4227 4228 0
4228 4229 3891 0
3891 4229 3892 0
3892 4229 3894 0
3555 4230 3895 0
4230 3555 2930 0
4231 4230 2930 0
3897 3559 4227 0
3559 4232 4227 0
4232 4228 4227 0
4229 4228 4233 0
4233 4228 4232 0
3894 4229 4234 0
4229 4233 4234 0
2930 3902 4231 0
3898 3893 4235 0
4235 3899 3898 0
4236 4226 4225 0
4216 4237 4225 0
4237 4236 4225 0
4238 4237 4216 0
4223 4238 4216 0
4232 3900 4239 0
3559 3900 4232 0
4239 4233 4232 0
3901 4234 4240 0
3901 3894 4234 0
4241 3902 3903 0
4242 3899 4235 0
3899 4242 3563 0
4243 4226 4236 0
4240 3561 3901 0
4241 3903 3565 0
4244 4241 3565 0
3904 3563 4242 0
3906 2939 3561 0
3906 3561 4240 0
3565 3568 4244 0
4245 3904 4242 0
4245 3908 3904 0
3900 3910 4239 0
4246 4247 4239 0
3910 4246 4239 0
3906 4248 3911 0
4249 3568 3254 0
3907 3908 4250 0
4250 3908 4245 0
4248 3914 3911 0
3254 4251 4249 0
3254 4252 4251 0
4250 3912 3907 0
4250 4253 3912 0
4253 3916 3912 0
3910 3917 4254 0
4254 3917 4255 0
3914 4256 3918 0
3254 4257 4252 0
3915 3916 4258 0
4258 3916 4253 0
4255 3917 3920 0
4259 4255 3920 0
3918 4260 3922 0
4256 4260 3918 0
3254 3578 4257 0
4258 3919 3915 0
4258 4261 3919 0
3920 3261 4259 0
4259 3261 4262 0
4263 4264 4260 0
3922 4260 3923 0
4257 3578 3583 0
3261 4265 4262 0
3580 4265 3261 0
4265 3580 3581 0
4263 4266 4267 0
4263 4267 4264 0
4264 4267 4260 0
3923 4260 4268 0
4260 4267 4268 0
3923 4268 3925 0
4269 4267 4266 0
4270 4269 4266 0
4268 4267 4271 0
4271 4267 4269 0
3925 4271 3931 0
4268 4271 3925 0
3919 4261 3928 0
3930 4265 3581 0
4269 4270 4272 0
4271 4269 4272 0
4273 4271 4272 0
3932 4271 4273 0
3932 3931 4271 0
4274 3583 4275 0
4276 3926 3928 0
3926 4276 3934 0
3930 3582 4277 0
4277 3582 3584 0
3934 4278 3935 0
4276 4278 3934 0
4279 4277 3584 0
3932 4273 3937 0
4280 3938 4281 0
3938 3937 4281 0
4280 4282 3938 0
4282 3939 3938 0
3939 4283 3583 0
3583 4283 4275 0
4284 4278 4276 0
3935 4278 4285 0
3935 4285 3940 0
3276 4286 4279 0
3276 4279 3584 0
4287 3939 4282 0
4283 3939 4287 0
4285 4278 3942 0
4285 3942 3940 0
4288 3276 3597 0
3597 4289 4288 0
3598 4289 3597 0
3943 4289 3598 0
4290 4278 4284 0
3942 4278 4290 0
3943 4291 4289 0
3944 4291 3943 0
4292 4291 3944 0
3944 3946 4292 0
3946 4293 4292 0
4294 4293 3947 0
3947 4293 3946 0
3947 3948 4295 0
4294 3947 4295 0
4294 4295 4296 0
3948 3950 4295 0
4295 3950 4296 0
3942 4297 3951 0
3942 3951 3941 0
3950 4298 4296 0
4299 4298 3950 0
3949 4299 3950 0
4297 4300 4301 0
3618 3951 4301 0
3951 4297 4301 0
4302 3949 3610 0
4302 3610 4303 0
4304 4300 4305 0
4301 4300 4304 0
3618 4301 3952 0
3610 3624 4303 0
4303 3624 4306 0
4301 4304 4307 0
3952 4307 3954 0
4301 4307 3952 0
3957 4308 3624 0
3624 4308 4306 0
3958 4307 4304 0
3954 4307 3958 0
3308 4309 4310 0
3960 4309 3308 0
3957 3308 4311 0
3308 4310 4311 0
3958 4312 3318 0
4304 4312 3958 0
3962 4313 3964 0
4314 4313 3962 0
3964 4313 3321 0
3004 3965 4315 0
3004 4315 3960 0
3960 4315 4309 0
3318 4312 3966 0
3963 4314 3962 0
4316 4315 3965 0
3967 4316 3965 0
3963 3971 4314 0
3967 3969 4316 0
4316 3969 4317 0
3971 3970 4318 0
4314 3971 4319 0
4319 3971 4318 0
3969 4320 4317 0
4320 3969 3972 0
3975 4318 3970 0
3975 4319 4318 0
3972 3639 4320 0
3975 3977 4319 0
3321 4313 3978 0
3639 3979 4320 0
3976 3973 3980 0
3973 4321 3980 0
3987 3988 4322 0
3986 3988 3987 0
3987 4322 3989 0
3647 3989 4323 0
3647 4323 4324 0
3982 3981 4324 0
3981 3647 4324 0
3977 4325 4319 0
4314 4319 4325 0
4313 4314 4326 0
4326 4314 4325 0
4313 4326 3978 0
3979 3651 4327 0
3980 4321 4328 0
3984 3980 4328 0
3985 3984 4329 0
3984 4328 4329 0
4329 4330 3985 0
3977 4331 4325 0
4326 4325 4331 0
3978 4326 3990 0
3651 3337 4332 0
4327 3651 4332 0
4333 3985 4330 0
4334 3992 3982 0
3977 3994 4331 0
4002 4331 3994 0
4326 4331 4002 0
3990 4326 4002 0
3337 4335 4332 0
3337 3997 4335 0
3997 4336 4335 0
4336 3997 3996 0
4337 4336 3996 0
3985 4333 3998 0
3998 4333 4338 0
3988 3999 4008 0
4339 3992 4340 0
4340 3992 4334 0
3992 4339 4001 0
3996 4005 4337 0
4337 4005 4341 0
4007 4338 4342 0
4007 3998 4338 0
4343 4344 4342 0
4340 4345 4339 0
4339 4345 4346 0
4001 4346 4010 0
4339 4346 4001 0
4347 4341 4005 0
4005 4011 4347 0
4342 4348 4012 0
4007 4342 4012 0
4349 4348 4342 0
4344 4349 4342 0
4009 4013 4349 0
4344 4009 4349 0
4346 4345 4014 0
4010 4346 4014 0
4011 4350 4347 0
4011 4016 4350 0
4016 4351 4350 0
4351 4016 4015 0
4352 4351 4015 0
4012 4348 4017 0
4349 4017 4348 0
4018 4017 4349 0
4013 4018 4349 0
4014 4353 4019 0
4015 4020 4352 0
4354 4355 4353 0
4355 4356 4357 0
4356 4022 4025 0
4356 4025 4357 0
4357 4025 4358 0
4353 4358 4024 0
4358 4025 4024 0
4019 4353 4024 0
4359 4355 4360 0
4030 4355 4359 0
4356 4355 4030 0
4022 4030 4027 0
4356 4030 4022 0
4360 4361 4362 0
4029 4359 4362 0
4359 4360 4362 0
4030 4359 4029 0
4027 4030 3696 0
4363 4364 4365 0
4361 4366 4362 0
4029 4362 4032 0
4036 4367 4363 0
4365 4036 4363 0
4368 4369 4365 0
4369 4036 4365 0
4369 4370 4371 0
4368 4370 4369 0
4026 4031 4372 0
4373 4374 4366 0
4362 4366 4375 0
4375 4366 4374 0
4032 4375 4033 0
4362 4375 4032 0
4039 4037 4036 0
4369 4039 4036 0
4039 4369 4376 0
4376 4369 4371 0
4377 4378 4379 0
4042 4375 4374 0
4033 4375 4042 0
4036 4038 4367 0
4039 4376 4040 0
4040 4376 4380 0
4031 4041 4372 0
4377 4381 4378 0
4378 4381 4382 0
4382 4379 4378 0
4042 4383 3709 0
4374 4383 4042 0
4384 4385 4386 0
4367 4038 4386 0
4372 4041 4051 0
4381 4387 4056 0
4382 4381 3725 0
3725 4381 4056 0
4388 4382 3725 0
3716 4383 4389 0
3709 4383 3716 0
4038 4384 4386 0
4056 4387 4057 0
4059 4388 3725 0
4390 4388 4059 0
4391 4060 4389 0
4060 3716 4389 0
4053 4384 4038 0
4053 4065 4384 0
4065 4392 4384 0
4047 4053 4038 0
4049 4050 4055 0
4393 4390 4059 0
4391 4393 4394 0
4060 4394 4061 0
4391 4394 4060 0
4395 4392 4066 0
4066 4392 4065 0
4057 4396 3750 0
4058 4068 4059 0
4397 4393 4059 0
3739 4394 4397 0
4394 4393 4397 0
4061 4394 3739 0
4395 4066 4070 0
4050 4398 4071 0
4055 4050 4071 0
4399 4398 4050 0
4396 4400 3750 0
4068 4072 4059 0
4397 4059 4073 0
4397 4073 3739 0
4070 4075 4401 0
4071 4398 4402 0
4402 4398 4399 0
4402 4399 4403 0
4059 4077 4404 0
4072 4077 4059 0
3751 4073 4404 0
4073 4059 4404 0
4401 4079 3764 0
4075 4079 4401 0
4071 4402 4080 0
4080 4403 4405 0
4080 4402 4403 0
4403 4090 4405 0
4051 4081 4406 0
4406 4081 4407 0
4400 4408 3750 0
4077 4087 4404 0
3751 4404 4087 0
4080 4405 4084 0
4090 4084 4405 0
4409 4410 4086 0
4407 4081 4086 0
4410 4407 4086 0
4409 4091 4090 0
4086 4091 4409 0
3750 4408 3773 0
4408 4411 4412 0
4408 4413 3773 0
4412 4414 4408 0
4413 4408 4414 0
3773 4413 4415 0
3773 4415 4100 0
4095 4416 4098 0
4417 4096 4418 0
4417 3764 4096 0
4097 4416 4095 0
4097 4419 4416 0
4098 4416 4102 0
4413 4414 4420 0
4420 4414 4421 0
4415 4413 4420 0
4101 4422 4103 0
4423 4422 4101 0
4422 4424 4103 0
4424 4104 4103 0
4419 4097 4104 0
4419 4104 4425 0
4425 4104 4424 0
4425 4426 4419 0
4419 4426 4416 0
4416 4426 4102 0
4418 4105 4113 0
4096 4105 4418 0
4113 4427 4418 0
4415 4420 4428 0
4100 4428 4107 0
4415 4428 4100 0
4109 4423 4101 0
4109 4429 4423 0
4429 4430 4423 0
4430 4422 4423 0
4102 4426 4431 0
4102 4431 4110 0
4110 4431 4432 0
4107 4428 4106 0
4108 4433 3789 0
4109 3789 4433 0
4109 4433 4434 0
4109 4434 4429 0
4430 4429 4434 0
4112 4110 4432 0
4435 4112 4432 0
4420 4436 4437 0
4437 4436 4438 0
4428 4420 4437 0
4435 3797 4112 0
4435 4439 3797 0
4437 4440 4428 0
4106 4428 4441 0
4441 4428 4440 0
4441 4108 4106 0
3797 4439 4115 0
4439 4442 4115 0
4113 3798 4443 0
4114 4444 4445 0
4114 4442 4444 0
4114 4115 4442 0
3464 4446 3798 0
3798 4446 4443 0
4447 4114 4445 0
4114 4447 4116 0
3464 4448 4446 0
3464 4117 4448 0
4118 4447 4449 0
4116 4447 4118 0
4449 4120 4118 0
4450 4120 4449 0
4117 4123 4448 0
4448 4123 4451 0
4122 4124 4451 0
4122 4451 4123 0
4120 4450 4125 0
4450 4452 4125 0
4124 3805 4451 0
3805 4453 4451 0
4453 4454 4451 0
4125 4452 4455 0
4126 4125 4455 0
4127 4126 4456 0
4126 4455 4456 0
4456 4457 4127 0
4458 4127 4457 0
4458 4459 4127 0
3805 4128 4453 0
4460 4454 4453 0
4129 4461 4128 0
4461 4453 4128 0
4460 4453 4462 0
4462 4453 4461 0
4129 4130 4461 0
4132 4461 4130 0
4462 4461 4132 0
4131 4462 4132 0
4131 4460 4462 0
4127 4459 4133 0
4133 4459 4463 0
4135 4131 4134 0
4460 4131 4135 0
4136 4460 4135 0
4136 4464 4460 0
3485 4133 4463 0
4137 4465 4136 0
4137 3819 4466 0
4466 4467 4137 0
4468 4465 4137 0
4467 4468 4137 0
3493 4469 4470 0
3493 3485 4469 0
4466 4471 4472 0
4466 3819 4471 0
3819 4138 4471 0
4467 4466 4472 0
4473 4467 4472 0
4468 4467 4473 0
3493 4470 4139 0
4139 4470 4474 0
4474 4470 4475 0
4476 4474 4475 0
3822 4140 4141 0
4471 4138 4141 0
4139 4474 4142 0
4476 4142 4474 0
4143 4142 4476 0
4477 4143 4476 0
4140 4143 4477 0
3825 2859 4144 0
4144 2859 4478 0
3827 4478 4479 0
4144 4478 3827 0
2518 4480 2861 0
4481 4480 3828 0
3828 4480 2518 0
3827 4146 3497 0
3828 4145 4481 0
2520 3163 4145 0
4145 3163 4481 0
2865 4482 3163 0
2866 4483 2865 0
2865 4483 4482 0
4483 2866 2524 0
4149 4148 4484 0
2868 4150 2526 0
4149 4484 4485 0
4149 4485 3832 0
3168 3832 4486 0
4486 3169 3168 0
3170 4487 4150 0
3170 3500 4487 0
4151 4488 4152 0
4151 4153 4489 0
4488 4151 4489 0
4153 4154 4489 0
3169 4486 4156 0
4152 4488 4158 0
4159 4158 4488 0
4489 4159 4488 0
4154 4159 4489 0
4155 4490 4491 0
4491 3838 4155 0
4492 4161 4160 0
4492 4160 4493 0
4162 4494 4160 0
4160 4494 4493 0
4495 4494 4164 0
4164 4494 4162 0
3838 4491 4496 0
4492 4169 4161 0
4164 4165 4495 0
3843 4497 4165 0
4166 4497 3843 0
3838 4496 4498 0
4168 3838 4498 0
4499 4169 4492 0
4170 4500 4166 0
4170 4171 4500 0
4176 4501 4171 0
4167 4168 4502 0
4167 4502 3846 0
4502 4172 3846 0
4173 4169 4499 0
4176 4503 4501 0
4177 4503 4176 0
3850 4504 4177 0
4177 4504 4503 0
4172 4502 4505 0
4178 4172 4505 0
4178 4505 4506 0
4499 4507 4173 0
3850 4508 4504 0
4179 4508 3850 0
4508 4179 4180 0
3856 4178 4506 0
4509 4181 4507 0
4507 4181 4173 0
4510 4511 4509 0
4182 4508 4180 0
4506 4512 3856 0
3856 4512 4183 0
4186 4183 4513 0
4183 4512 4513 0
4513 4514 4186 0
3853 2574 3863 0
4509 4515 4184 0
4181 4509 4184 0
4511 4515 4509 0
4516 4186 4514 0
4187 4186 4516 0
3863 3862 4517 0
4188 4184 4515 0
4188 4515 4518 0
4511 4519 4515 0
4519 4518 4515 0
4520 4519 4511 0
4189 4521 4185 0
4187 4203 3867 0
4187 4516 4203 0
4516 4522 4203 0
3862 4192 4517 0
4188 4518 4190 0
4194 4190 4518 0
4519 4194 4518 0
4195 4194 4519 0
4195 4519 4523 0
4523 4519 4520 0
4524 4525 4520 0
4525 4523 4520 0
4526 4525 4524 0
4527 4525 4526 0
4528 4527 4526 0
4529 4528 4530 0
4531 4528 4529 0
4189 4191 4521 0
4198 4195 4523 0
4525 4198 4523 0
4199 4198 4525 0
4199 4525 4200 0
4527 4200 4525 0
4531 4527 4528 0
4529 4532 4531 0
4521 4191 4533 0
4192 4196 4534 0
4527 4201 4200 0
4532 4535 4531 0
4535 4527 4531 0
4535 4532 4536 0
4533 4191 4202 0
4522 4537 4203 0
4196 4538 4534 0
4196 4539 4538 0
4201 4527 4540 0
4540 4527 4535 0
4536 4541 4535 0
4541 4540 4535 0
4202 4204 4542 0
4537 4205 4203 0
4196 4543 4539 0
1949 4543 4196 0
4540 4541 4544 0
4542 4204 4545 0
4201 4540 4208 0
4208 4544 4546 0
4208 4540 4544 0
4204 4210 4545 0
4206 4547 4548 0
1949 3232 4543 0
4543 3232 4549 0
4208 4546 4215 0
4544 4550 4546 0
4550 4215 4546 0
4206 4551 4217 0
4211 4206 4217 0
4548 4551 4206 0
4552 4549 3232 0
4219 4553 4220 0
4219 4214 4553 0
4553 4214 4554 0
4214 4215 4554 0
4550 4554 4215 0
4545 4210 4222 0
4223 4217 4551 0
4223 4551 4555 0
4548 4556 4551 0
4556 4555 4551 0
4557 4548 4547 0
4556 4548 4557 0
4552 3232 4218 0
4552 4218 4558 0
4558 4218 3896 0
4553 4559 3893 0
4220 4553 3893 0
4560 4559 4553 0
4554 4561 4553 0
4561 4560 4553 0
4550 4561 4554 0
4561 4550 4562 0
4563 4555 4556 0
4557 4563 4556 0
3896 4564 4558 0
3895 4564 3896 0
4230 4564 3895 0
4230 4231 4564 0
3893 4559 4565 0
4565 4559 4560 0
4566 4565 4560 0
4223 4555 4238 0
4563 4567 4555 0
4564 4231 4568 0
4568 4231 3902 0
3893 4565 4235 0
4565 4566 4235 0
4555 4569 4238 0
4569 4555 4567 0
4233 4239 4570 0
4233 4571 4234 0
4570 4571 4233 0
4234 4571 4240 0
3902 4241 4568 0
4235 4566 4242 0
4566 4572 4242 0
4237 4238 4573 0
4574 4237 4573 0
4238 4569 4573 0
4573 4569 4575 0
4575 4569 4576 0
4240 4571 4577 0
4578 4242 4572 0
4579 4243 4236 0
4579 4580 4243 0
4236 4237 4574 0
4236 4574 4579 0
4579 4574 4581 0
4573 4582 4574 0
4582 4573 4575 0
4576 4582 4575 0
4570 4247 4583 0
4239 4247 4570 0
4571 4570 4584 0
4584 4570 4583 0
4577 4571 4584 0
4240 4577 3906 0
4244 3568 4585 0
4245 4242 4578 0
4579 4586 4580 0
4581 4586 4579 0
4587 4586 4581 0
4587 4581 4588 0
4581 4574 4588 0
4582 4589 4574 0
4589 4588 4574 0
4589 4582 4590 0
4583 4247 4591 0
4247 4246 4591 0
4584 4248 4577 0
4577 4248 3906 0
3568 4592 4585 0
4249 4592 3568 0
4249 4593 4594 0
4249 4594 4592 0
4245 4578 4250 0
4578 4595 4250 0
3910 4254 4596 0
3910 4596 4246 0
4246 4596 4591 0
4248 4597 3914 0
4249 4251 4593 0
4593 4251 4598 0
4251 4252 4598 0
4250 4595 4599 0
4599 4253 4250 0
4600 4596 4254 0
4255 4600 4254 0
4256 3914 4597 0
4252 4257 4598 0
4253 4599 4258 0
4599 4601 4258 0
4255 4259 4600 0
4256 4263 4260 0
4258 4601 4602 0
4602 4261 4258 0
4259 4262 4600 0
4257 3583 4603 0
4603 3583 4604 0
4605 4266 4263 0
4605 4606 4266 0
4606 4270 4266 0
4607 4604 4274 0
4274 4604 3583 0
4261 4608 3928 0
4270 4606 4609 0
4272 4270 4609 0
4273 4272 4609 0
4610 4607 4611 0
4274 4275 4611 0
4607 4274 4611 0
3928 4608 4276 0
4611 4612 4610 0
4612 4611 4275 0
4277 4279 4613 0
3937 4273 4614 0
3937 4615 4281 0
4614 4615 3937 0
4281 4615 4280 0
4275 4283 4612 0
4612 4283 4616 0
4276 4608 4284 0
4286 4613 4279 0
4617 4618 4614 0
4614 4618 4615 0
4615 4618 4280 0
4619 4287 4282 0
4616 4283 4287 0
4619 4616 4287 0
4608 4620 4284 0
4621 4286 3276 0
3276 4288 4621 0
4618 4617 4622 0
4280 4618 4622 0
4623 4280 4622 0
4282 4280 4623 0
4620 4624 4284 0
4625 4626 4621 0
4289 4625 4621 0
4289 4621 4288 0
4627 4624 4628 0
4627 4284 4624 0
4629 4626 4625 0
4630 4626 4629 0
4289 4291 4625 0
4625 4291 4629 0
4291 4292 4631 0
4292 4293 4632 0
4631 4292 4632 0
4633 4627 4628 0
4634 4633 4628 0
4284 4635 4290 0
4284 4627 4635 0
4627 4633 4635 0
4290 4635 3942 0
4629 4636 4630 0
4291 4636 4629 0
4631 4636 4291 0
4637 4636 4631 0
4637 4631 4638 0
4631 4632 4638 0
4293 4294 4639 0
4293 4639 4632 0
4632 4639 4638 0
4294 4296 4639 0
4634 4640 4300 0
4633 4634 4300 0
4297 4633 4300 0
4635 4633 4297 0
3942 4635 4297 0
4641 4638 4639 0
4296 4641 4639 0
4296 4298 4641 0
4298 4642 4641 0
4299 4642 4298 0
4305 4300 4640 0
4299 4643 4642 0
3949 4643 4299 0
4644 4302 4303 0
4644 4303 4306 0
4644 4306 4645 0
4646 4645 4306 0
4308 4646 4306 0
4310 4309 4647 0
4647 4648 4310 0
4648 4311 4310 0
4649 3957 4311 0
4308 3957 4650 0
4650 3957 4649 0
4646 4308 4650 0
4312 4304 4305 0
4647 4315 4651 0
4309 4315 4647 0
4651 4648 4647 0
4651 4315 4652 0
4315 4316 4652 0
4320 4652 4317 0
4652 4316 4317 0
3966 4312 3973 0
4312 4653 3973 0
4654 3973 4653 0
4655 4320 3979 0
4654 4656 4321 0
3973 4654 4321 0
4657 4656 4654 0
4658 4657 4654 0
4659 4658 4660 0
3989 4322 4661 0
4662 4323 4661 0
4323 3989 4661 0
4323 4663 4324 0
4662 4663 4323 0
4324 4663 3982 0
3979 4327 4664 0
4321 4656 4328 0
4329 4328 4656 0
4657 4329 4656 0
4330 4329 4657 0
4330 4657 4658 0
4330 4658 4659 0
4322 3988 4008 0
3982 4663 4334 0
4327 4332 4664 0
4664 4332 4665 0
4333 4330 4659 0
4666 4662 4667 0
4663 4662 4666 0
4334 4663 4668 0
4669 4332 4335 0
4669 4670 4332 0
4670 4665 4332 0
4335 4336 4671 0
4669 4335 4671 0
4336 4337 4671 0
4343 4333 4659 0
4343 4338 4333 0
4672 4673 4009 0
4009 4673 4008 0
4668 4663 4674 0
4334 4674 4340 0
4668 4674 4334 0
4670 4675 4676 0
4670 4669 4675 0
4669 4671 4675 0
4337 4341 4675 0
4671 4337 4675 0
4343 4342 4338 0
4672 4344 4343 0
4009 4344 4672 0
4663 4666 4677 0
4345 4674 4677 0
4674 4663 4677 0
4340 4674 4345 0
4676 4675 4341 0
4676 4341 4347 0
4678 4679 4680 0
4681 4679 4678 0
4677 4666 4353 0
4345 4677 4014 0
4347 4682 4676 0
4350 4682 4347 0
4351 4682 4350 0
4351 4352 4682 0
4681 4678 4353 0
4353 4678 4354 0
4666 4681 4353 0
4677 4353 4014 0
4682 4352 4683 0
4683 4352 4020 0
4678 4684 4685 0
4354 4685 4355 0
4354 4678 4685 0
4357 4353 4355 0
4358 4353 4357 0
4020 4026 4683 0
4685 4684 4686 0
4686 4684 4687 0
4355 4686 4360 0
4685 4686 4355 0
4365 4364 4688 0
4688 4689 4690 0
4364 4689 4688 0
4687 4691 4366 0
4361 4687 4366 0
4686 4687 4361 0
4360 4686 4361 0
4692 4363 4693 0
4364 4363 4692 0
4368 4365 4688 0
4368 4688 4694 0
4694 4688 4690 0
4026 4372 4695 0
4691 4373 4366 0
4696 4697 4698 0
4367 4697 4693 0
4693 4697 4696 0
4363 4367 4693 0
4371 4370 4699 0
4370 4368 4699 0
4699 4700 4371 0
4695 4372 4701 0
4377 4702 4703 0
4704 4377 4703 0
4703 4702 4705 0
4698 4386 4385 0
4367 4386 4698 0
4697 4367 4698 0
4371 4380 4376 0
4380 4371 4700 0
4379 4702 4377 0
4379 4705 4702 0
4706 4385 4707 0
4380 4708 4040 0
4377 4709 4387 0
4377 4387 4381 0
4379 4382 4710 0
4711 4379 4710 0
4374 4373 4383 0
4385 4384 4707 0
4707 4384 4712 0
4040 4713 4050 0
4713 4040 4708 0
4382 4388 4710 0
4390 4710 4388 0
4711 4710 4390 0
4390 4714 4711 0
4715 4711 4714 0
4373 4715 4716 0
4716 4715 4714 0
4383 4716 4389 0
4373 4716 4383 0
4717 4712 4384 0
4050 4713 4399 0
4399 4713 4718 0
4718 4719 4399 0
4720 4701 4372 0
4051 4720 4372 0
4387 4721 4057 0
4390 4393 4714 0
4391 4714 4393 0
4716 4714 4391 0
4389 4716 4391 0
4717 4722 4723 0
4384 4392 4722 0
4717 4384 4722 0
4724 4399 4719 0
4721 4725 4057 0
4395 4726 4723 0
4392 4395 4722 0
4722 4395 4723 0
4727 4399 4724 0
4720 4051 4728 0
4057 4725 4396 0
4401 4726 4395 0
4395 4070 4401 0
4399 4729 4403 0
4730 4399 4727 0
4729 4399 4730 0
4728 4051 4731 0
4732 4400 4396 0
4733 4729 4730 0
4733 4403 4729 0
4733 4734 4735 0
4736 4734 4733 0
4735 4734 4731 0
4735 4731 4406 0
4406 4731 4051 0
4732 4737 4738 0
4732 4738 4400 0
4090 4403 4739 0
4739 4403 4733 0
4740 4739 4733 0
4735 4740 4733 0
4406 4407 4740 0
4735 4406 4740 0
4741 4738 4737 0
4742 4741 4737 0
4400 4738 4743 0
4743 4738 4741 0
4400 4743 4408 0
4409 4090 4739 0
4740 4409 4739 0
4410 4409 4740 0
4407 4410 4740 0
4742 4744 4741 0
4741 4744 4745 0
4408 4743 4745 0
4743 4741 4745 0
4408 4745 4411 0
4746 4747 4745 0
4411 4747 4412 0
4745 4747 4411 0
3764 4417 4748 0
4412 4747 4749 0
4412 4749 4414 0
4748 4417 4418 0
4750 4748 4418 0
4751 4747 4746 0
4752 4751 4746 0
4749 4747 4753 0
4753 4747 4751 0
4414 4753 4421 0
4749 4753 4414 0
4418 4427 4750 0
4751 4754 4755 0
4751 4755 4753 0
4421 4753 4756 0
4753 4755 4756 0
4421 4756 4420 0
4422 4430 4757 0
4422 4757 4424 0
4425 4424 4757 0
4431 4425 4757 0
4426 4425 4431 0
4432 4758 4759 0
4758 4760 4759 0
4759 4761 4762 0
4760 4761 4759 0
4750 4427 4763 0
4764 4755 4754 0
4436 4756 4764 0
4756 4755 4764 0
4420 4756 4436 0
4434 4765 4430 0
4430 4765 4757 0
4435 4432 4759 0
4766 4762 4761 0
4766 4767 4762 0
4768 4764 4754 0
4436 4768 4438 0
4764 4768 4436 0
4769 4433 4108 0
4433 4770 4434 0
4771 4765 4770 0
4770 4765 4434 0
4757 4765 4771 0
4439 4435 4759 0
4439 4759 4772 0
4772 4759 4762 0
4767 4772 4762 0
4113 4443 4763 0
4113 4763 4427 0
4773 4768 4754 0
4774 4773 4754 0
4438 4768 4775 0
4768 4773 4775 0
4438 4776 4437 0
4775 4776 4438 0
4437 4776 4440 0
4777 4433 4778 0
4778 4433 4769 0
4770 4433 4777 0
4779 4770 4777 0
4771 4770 4779 0
4772 4780 4442 0
4439 4772 4442 0
4767 4781 4772 0
4781 4780 4772 0
4782 4767 4766 0
4781 4767 4782 0
4775 4783 4784 0
4775 4784 4776 0
4440 4776 4785 0
4776 4784 4785 0
4440 4786 4441 0
4785 4786 4440 0
4441 4769 4108 0
4441 4786 4769 0
4786 4778 4769 0
4777 4778 4787 0
4445 4444 4788 0
4780 4444 4442 0
4780 4789 4444 0
4781 4789 4780 0
4790 4789 4781 0
4782 4790 4781 0
4763 4446 4791 0
4443 4446 4763 0
4785 4784 4783 0
4786 4785 4783 0
4778 4786 4783 0
4787 4778 4783 0
4792 4447 4788 0
4447 4445 4788 0
4446 4448 4793 0
4446 4793 4791 0
4788 4794 4795 0
4788 4795 4792 0
4792 4795 4796 0
4447 4796 4449 0
4792 4796 4447 0
4450 4796 4797 0
4796 4795 4797 0
4449 4796 4450 0
4793 4451 4454 0
4448 4451 4793 0
4791 4793 4454 0
4797 4798 4799 0
4450 4797 4452 0
4791 4454 4800 0
4801 4799 4798 0
4802 4801 4798 0
4797 4799 4803 0
4803 4799 4801 0
4797 4803 4452 0
4801 4802 4804 0
4803 4801 4804 0
4805 4803 4804 0
4452 4803 4805 0
4452 4805 4455 0
4456 4455 4806 0
4806 4457 4456 0
4807 4457 4806 0
4807 4458 4457 0
4808 4800 4454 0
4809 4458 4810 0
4459 4458 4809 0
4808 4454 4811 0
4812 4808 4811 0
4809 4813 4459 0
4460 4814 4454 0
4811 4454 4814 0
4815 4811 4814 0
4816 4811 4817 0
4817 4818 4816 0
4459 4813 4463 0
4813 4819 4463 0
4464 4814 4460 0
4815 4814 4464 0
4464 4820 4815 0
4820 4811 4815 0
4817 4811 4820 0
4819 4469 4463 0
4464 4136 4820 0
4817 4820 4821 0
4822 4823 4824 0
4822 4824 4821 0
4821 4824 4817 0
4463 4469 3485 0
4820 4465 4821 0
4136 4465 4820 0
4821 4465 4825 0
4465 4468 4825 0
4475 4470 4469 0
4472 4826 4827 0
4471 4826 4472 0
4473 4472 4828 0
4472 4827 4828 0
4825 4468 4473 0
4828 4825 4473 0
4475 4829 4476 0
4477 4476 4829 0
4830 4477 4829 0
4830 4831 4477 0
4477 4831 4140 0
4141 4140 4826 0
4140 4831 4826 0
4826 4471 4141 0
4478 4832 4833 0
4479 4478 4833 0
2859 4834 4478 0
4478 4834 4832 0
4835 4834 2859 0
4479 4833 3827 0
2859 2861 4835 0
2861 4480 4835 0
3827 4833 4146 0
3163 4836 4481 0
4481 4836 4837 0
3163 4482 4836 0
4482 4483 4838 0
4839 4483 2524 0
4146 4840 4147 0
3829 4147 4841 0
4147 4840 4841 0
3829 4841 4842 0
4148 3829 4842 0
4484 4148 4843 0
4148 4842 4843 0
2524 2526 4839 0
4484 4843 4844 0
4485 4484 4844 0
4485 4844 3832 0
4155 4156 4845 0
4846 4490 4845 0
4490 4155 4845 0
4490 4846 4491 0
4847 4157 1912 0
4493 4848 4492 0
4493 4494 4495 0
4848 4493 4495 0
4491 4849 4496 0
4850 4851 4496 0
4495 4852 4848 0
4852 4853 4848 0
4854 4852 4495 0
4495 4165 4854 0
4165 4497 4854 0
4496 4851 4498 0
4498 4851 4168 0
4168 4851 4855 0
4848 4856 4499 0
4492 4848 4499 0
4856 4848 4853 0
4166 4500 4497 0
4501 4500 4171 0
4501 4857 4500 0
4502 4168 4855 0
4855 4858 4502 0
4856 4859 4499 0
4859 4856 4860 0
4501 4503 4857 0
4857 4503 4861 0
4503 4504 4861 0
4504 4862 4861 0
4502 4858 4505 0
4505 4858 4506 0
4512 4506 4858 0
4859 4863 4507 0
4499 4859 4507 0
4860 4510 4859 0
4510 4863 4859 0
4860 4864 4510 0
4865 4866 4864 0
4504 4508 4862 0
4508 4867 4862 0
4507 4863 4509 0
4510 4509 4863 0
4864 4511 4510 0
4520 4511 4864 0
4520 4864 4868 0
4869 4868 4864 0
4870 4869 4864 0
4866 4870 4864 0
4871 4866 4872 0
4873 4866 4871 0
4508 4182 4867 0
4182 4874 4867 0
3853 3863 1199 0
4524 4520 4868 0
4869 4524 4868 0
4526 4524 4869 0
4526 4869 4875 0
4875 4869 4870 0
4873 4870 4866 0
4876 4873 4871 0
4182 4185 4874 0
4185 4877 4878 0
4185 4878 4874 0
4877 4879 4880 0
4878 4877 4880 0
4880 4879 4881 0
4514 4882 4516 0
1199 3863 4517 0
4870 4526 4875 0
4528 4526 4870 0
4530 4528 4870 0
4530 4870 4873 0
4876 4530 4873 0
4185 4521 4877 0
4883 4881 4879 0
4882 4522 4516 0
4882 4884 4522 0
4885 4517 4192 0
4876 4529 4530 0
4886 4887 4888 0
4877 4521 4889 0
4879 4877 4889 0
4890 4522 4884 0
4192 4534 4885 0
4885 4534 4891 0
4532 4529 4892 0
4892 4529 4876 0
4888 4892 4876 0
4887 4892 4888 0
4521 4533 4889 0
4893 4883 4879 0
4890 4894 4522 0
4895 4891 4534 0
4532 4892 4536 0
4896 4536 4892 0
4887 4896 4892 0
4533 4202 4889 0
4542 4889 4202 0
4542 4893 4889 0
4893 4879 4889 0
4894 4897 4537 0
4522 4894 4537 0
4898 4897 4894 0
4538 4895 4534 0
4539 4895 4538 0
4541 4536 4896 0
4537 4897 4205 0
4205 4897 4899 0
4899 4897 4898 0
4899 4898 4900 0
4543 4901 4539 0
4541 4896 4544 0
4887 4544 4896 0
4542 4545 4893 0
4545 4902 4893 0
4205 4899 4206 0
4903 4899 4900 0
4206 4899 4903 0
4543 4904 4901 0
4905 4906 4887 0
4906 4544 4887 0
4206 4903 4547 0
4543 4549 4907 0
4904 4543 4907 0
4550 4544 4906 0
4907 4549 4908 0
4908 4549 4552 0
4909 4910 4906 0
4909 4911 4910 0
4545 4222 4902 0
4902 4222 4226 0
4547 4903 4557 0
4903 4912 4557 0
4908 4552 4558 0
4913 4908 4558 0
4550 4906 4562 0
4910 4914 4906 0
4914 4562 4906 0
4915 4910 4911 0
4914 4910 4915 0
4563 4557 4916 0
4557 4912 4916 0
4564 4913 4558 0
4560 4917 4566 0
4917 4560 4918 0
4560 4561 4918 0
4561 4562 4918 0
4914 4918 4562 0
4915 4919 4914 0
4915 4920 4919 0
4902 4226 4921 0
4563 4922 4567 0
4922 4563 4916 0
4564 4923 4913 0
4923 4564 4568 0
4914 4919 4918 0
4924 4919 4920 0
4226 4243 4921 0
4569 4567 4922 0
4569 4922 4925 0
4241 4923 4568 0
4241 4926 4923 0
4917 4927 4572 0
4566 4917 4572 0
4928 4927 4917 0
4918 4929 4917 0
4929 4928 4917 0
4919 4929 4918 0
4930 4919 4924 0
4569 4925 4576 0
4922 4931 4925 0
4931 4576 4925 0
4932 4922 4916 0
4931 4922 4932 0
4241 4244 4926 0
4244 4933 4926 0
4926 4933 4934 0
4578 4572 4927 0
4578 4927 4935 0
4936 4935 4928 0
4935 4927 4928 0
4929 4919 4937 0
4930 4937 4919 0
4582 4576 4938 0
4931 4938 4576 0
4933 4585 4939 0
4244 4585 4933 0
4934 4933 4940 0
4940 4933 4939 0
4935 4936 4578 0
4936 4941 4578 0
4586 4942 4580 0
4943 4944 4942 0
4943 4942 4587 0
4587 4942 4586 0
4582 4938 4590 0
4945 4590 4938 0
4946 4945 4931 0
4945 4938 4931 0
4932 4946 4931 0
4583 4591 4947 0
4583 4948 4584 0
4947 4948 4583 0
4584 4948 4248 0
4585 4592 4939 0
4594 4939 4592 0
4940 4939 4594 0
4940 4594 4593 0
4940 4593 4934 0
4599 4595 4941 0
4941 4595 4578 0
4587 4588 4949 0
4587 4949 4943 0
4588 4589 4950 0
4949 4588 4950 0
4589 4590 4950 0
4945 4950 4590 0
4591 4596 4947 0
4948 4947 4597 0
4948 4597 4248 0
4598 4951 4593 0
4952 4944 4943 0
4953 4944 4952 0
4949 4952 4943 0
4945 4954 4950 0
4955 4945 4946 0
4954 4945 4955 0
4596 4600 4947 0
4597 4947 4956 0
4257 4951 4598 0
4957 4951 4257 0
4599 4958 4601 0
4953 4952 4959 0
4952 4949 4959 0
4950 4960 4949 0
4960 4959 4949 0
4960 4950 4954 0
4955 4960 4954 0
4947 4600 4961 0
4962 4956 4961 0
4961 4956 4947 0
4256 4597 4956 0
4957 4257 4963 0
4960 4964 4959 0
4964 4965 4959 0
4961 4262 4966 0
4600 4262 4961 0
4966 4962 4961 0
4956 4263 4256 0
4967 4968 4969 0
4967 4970 4971 0
4969 4970 4967 0
4971 4970 4963 0
4971 4963 4603 0
4603 4963 4257 0
4602 4972 4261 0
4966 4262 4265 0
4973 4968 4967 0
4974 4968 4973 0
4971 4975 4967 0
4975 4973 4967 0
4976 4975 4971 0
4603 4604 4976 0
4971 4603 4976 0
4972 4608 4261 0
4974 4977 4978 0
4974 4973 4977 0
4610 4977 4975 0
4975 4977 4973 0
4607 4610 4975 0
4976 4607 4975 0
4604 4607 4976 0
4265 3930 4979 0
4609 4606 4605 0
4610 4978 4977 0
4612 4978 4610 0
4273 4609 4980 0
4273 4980 4617 0
4273 4617 4614 0
4978 4612 4616 0
4981 4620 4608 0
4619 4282 4982 0
4619 4982 4616 0
4616 4982 4978 0
4983 4620 4981 0
4622 4617 4984 0
4622 4984 4623 0
4982 4282 4623 0
4982 4623 4985 0
4620 4986 4624 0
4983 4986 4620 0
4986 4628 4624 0
4628 4987 4634 0
4637 4988 4636 0
4640 4987 4989 0
4987 4640 4634 0
4638 4990 4988 0
4638 4988 4637 0
4991 4992 4993 0
4994 4992 4991 0
4992 4995 4993 0
4641 4990 4638 0
4642 4990 4641 0
4996 4990 4642 0
4642 4643 4996 0
4643 4997 4996 0
3949 4998 4643 0
4643 4998 4997 0
4302 4998 3949 0
4998 4302 4644 0
4999 4998 4644 0
4640 4989 4305 0
4989 5000 4305 0
5001 5002 4991 0
4993 5003 4991 0
5003 5001 4991 0
5004 4993 4995 0
5003 4993 5004 0
4999 4644 4645 0
5005 4305 5000 0
5003 5006 5001 0
5007 5006 5003 0
5004 5007 5003 0
4645 4646 5008 0
5006 5009 5001 0
4649 4311 5010 0
4649 5011 4650 0
5010 5011 4649 0
4650 5011 5012 0
4650 5012 4646 0
4646 5012 5008 0
4305 5005 4312 0
5009 5013 5001 0
4648 5014 4311 0
5015 5014 4648 0
4311 5014 5010 0
5014 5016 5010 0
5012 5011 5016 0
5016 5011 5010 0
5017 5018 5005 0
5002 5019 5017 0
5019 5018 5017 0
5013 5019 5001 0
5019 5002 5001 0
4651 4652 5020 0
4651 5015 4648 0
4651 5020 5015 0
5020 5021 5015 0
5021 5014 5015 0
5022 5018 5019 0
5022 4660 5018 0
4658 5018 4660 0
5013 5022 5019 0
4652 4320 5020 0
5023 5021 5020 0
5023 5020 4655 0
5023 4655 5024 0
4320 4655 5020 0
5014 5021 5023 0
5005 5025 4653 0
4312 5005 4653 0
4658 5025 5018 0
5018 5025 5005 0
4653 5025 4654 0
4658 4654 5025 0
4655 3979 5024 0
5024 3979 4664 0
4660 5026 4659 0
5026 5027 4659 0
4008 5028 4322 0
5028 5029 4322 0
4322 5029 4661 0
4661 4667 4662 0
5027 5030 4659 0
5031 4659 5030 0
4667 5032 5033 0
5033 5032 5034 0
4667 5033 4666 0
4670 5035 4665 0
4659 5031 4343 0
4672 4343 5031 0
5034 5036 5037 0
4681 5033 5037 0
5033 5034 5037 0
4666 5033 4681 0
4670 4676 5035 0
5036 4680 4679 0
4681 5036 4679 0
5037 5036 4681 0
5035 4676 5038 0
4680 5039 4678 0
4682 5038 4676 0
4680 5040 5041 0
4678 5039 5041 0
5039 4680 5041 0
5038 4682 4683 0
5042 5038 4683 0
4678 5041 4684 0
5043 5044 4692 0
5044 5045 4364 0
4683 4026 5042 0
5041 4687 4684 0
5046 5047 5048 0
5049 5047 5046 0
5043 5048 5047 0
5043 5050 5048 0
4692 5050 5043 0
5044 4364 4692 0
4690 4689 5051 0
5051 5052 4690 0
5049 5053 5054 0
5049 5046 5053 0
5046 5048 5053 0
4693 4696 5048 0
5050 4693 5048 0
4692 4693 5050 0
4690 5055 4694 0
5055 4690 5052 0
4026 4695 5056 0
5057 5058 5059 0
5057 5059 5060 0
4696 4698 5061 0
4696 5061 5048 0
5048 5061 5053 0
4694 5055 4368 0
5055 5062 4368 0
4368 5062 4699 0
5062 4700 4699 0
5063 4700 5062 0
5056 4695 4701 0
5064 5056 4701 0
4709 4377 4704 0
4709 4704 4703 0
4705 5059 4703 0
4705 5060 5059 0
4691 5060 4705 0
5061 4385 5065 0
4698 4385 5061 0
4700 5063 4380 0
5063 5066 4380 0
4705 4379 5067 0
4691 4705 5067 0
5068 4691 5067 0
4691 5068 4373 0
4385 4706 5065 0
5066 4708 4380 0
5069 4708 5066 0
5070 5071 4387 0
5070 4387 4709 0
4379 4711 5067 0
4715 5067 4711 0
5068 5067 4715 0
4373 5068 4715 0
4706 5072 5065 0
4707 4712 5072 0
4706 4707 5072 0
5069 4718 4713 0
5069 4713 4708 0
5071 5073 4387 0
5074 5075 5065 0
5076 5075 5074 0
4712 4717 5074 0
4712 5074 5072 0
5072 5074 5065 0
4718 4724 4719 0
4701 4720 5064 0
5064 4720 5077 0
4721 4387 5073 0
4723 5076 5074 0
4723 4726 5076 0
4726 5078 5076 0
4717 4723 5074 0
5077 4720 5079 0
4725 4721 5080 0
5079 4720 4728 0
5081 5079 4728 0
5080 4396 4725 0
5082 4396 5080 0
4726 4401 5078 0
5083 4730 4727 0
4727 5084 5083 0
4728 4731 5081 0
5081 4731 5085 0
5086 4732 5082 0
4732 4396 5082 0
4736 4733 4730 0
5083 4736 4730 0
5083 5084 4736 0
4736 5084 4734 0
5085 4731 4734 0
5084 5085 4734 0
4737 5086 5087 0
4732 5086 4737 0
5088 4742 5087 0
4742 4737 5087 0
5088 5089 4744 0
4742 5088 4744 0
4401 3764 5090 0
4745 4744 5089 0
3764 4748 5090 0
5090 4748 5091 0
5092 4745 5089 0
4745 5092 4746 0
5093 5091 4748 0
5092 5094 4746 0
4750 5093 4748 0
4750 5095 5093 0
5095 5096 5093 0
5097 5098 5099 0
4746 5094 4752 0
5094 5100 4752 0
5101 5099 5098 0
5102 4431 4757 0
4432 4431 5102 0
4432 5102 4758 0
5095 4763 5103 0
4750 4763 5095 0
5097 5095 5103 0
4751 5104 4754 0
4757 4771 5102 0
4766 4761 5105 0
5106 4766 5105 0
5098 5097 5103 0
4771 5107 5108 0
5109 5110 5101 0
4754 5104 4774 0
4779 4777 5107 0
4777 5111 5107 0
5107 4771 4779 0
4766 5106 4782 0
5106 5112 4782 0
5113 4773 4774 0
5113 4774 5114 0
5114 4774 5104 0
4773 5115 4775 0
5113 5115 4773 0
4775 5115 4783 0
5111 4777 4787 0
4788 4444 5116 0
4444 4789 5116 0
4790 5117 4789 0
5112 4790 4782 0
5117 4790 5112 0
5113 5114 5118 0
5118 5119 5113 0
5113 5119 5115 0
4783 5115 5120 0
5115 5119 5120 0
5120 5121 4783 0
4783 5121 5122 0
4787 4783 5123 0
4783 5122 5123 0
5123 5111 4787 0
5124 4788 5116 0
4763 4791 5103 0
5098 5103 5125 0
5101 5098 5125 0
5119 5118 5126 0
5120 5119 5126 0
5127 5120 5126 0
5128 4795 4794 0
5128 4794 5129 0
5129 4794 5130 0
5124 4794 4788 0
5130 4794 5124 0
4795 5131 4797 0
5128 5131 4795 0
4791 4800 5103 0
5109 5101 5125 0
4797 5131 4798 0
5125 5103 5132 0
5133 5134 5109 0
4798 5131 4802 0
5131 5135 4802 0
4800 5132 5103 0
4802 5135 5136 0
4804 4802 5136 0
4805 4804 5137 0
4804 5136 5137 0
4455 4805 5137 0
4455 5137 4806 0
4807 5138 4458 0
4807 4806 5138 0
5138 5139 4458 0
4800 4808 5132 0
4812 5132 4808 0
5125 5132 4812 0
4812 5140 5125 0
5109 5125 5140 0
5141 5109 5140 0
5133 5109 5141 0
4458 5139 4810 0
4812 4811 5140 0
4816 5140 4811 0
5141 5140 4816 0
4816 5142 5141 0
5142 5133 5141 0
4813 4809 5143 0
5142 4818 5144 0
4816 4818 5142 0
5133 5142 5145 0
5145 5142 5144 0
5146 5147 5133 0
5145 5146 5133 0
5148 4813 5143 0
5149 4813 5148 0
4818 4817 5150 0
4818 5150 5151 0
4818 5151 5144 0
5145 5144 5151 0
5152 5145 5151 0
5146 5145 5152 0
5149 5153 4819 0
4813 5149 4819 0
5148 5154 5149 0
4817 4824 5155 0
5155 5150 4817 0
