#!ascii version written be Caret
17949 35894
10873 10872 10547 0
10542 10874 10205 0
10874 9911 10205 0
10543 10874 10542 0
10875 10874 10543 0
9913 10549 10548 0
10873 10547 10876 0
10208 10877 10550 0
10550 10877 10878 0
10548 10879 10208 0
10879 10877 10208 0
10876 10551 10880 0
10876 10547 10551 0
10876 10880 10881 0
10553 10882 10552 0
10552 10882 10210 0
10878 10553 10550 0
10882 10553 10878 0
10880 10554 10883 0
10551 10554 10880 0
10881 10880 10219 0
10219 10880 10883 0
10554 10556 10883 0
10219 10883 10556 0
10219 10560 10881 0
10884 10215 10558 0
10885 10558 10555 0
10884 10558 10885 0
10560 10561 10881 0
10881 10561 10562 0
10215 10886 10214 0
10886 10563 10214 0
10884 10886 10215 0
10887 10559 10218 0
9927 10559 10888 0
10888 10889 10890 0
10559 10889 10888 0
10564 10563 10891 0
10564 10891 10892 0
10892 10891 10893 0
9599 10565 10216 0
10887 10218 10566 0
9927 10888 10223 0
10894 10888 10890 0
10892 10895 10567 0
10564 10892 10567 0
10895 10892 10893 0
10565 9598 9933 0
10896 10569 10568 0
10896 10568 10223 0
10897 10896 10223 0
10888 10897 10223 0
10567 10895 10225 0
9933 9605 10898 0
10569 10899 9935 0
10896 10899 10569 0
10899 10227 9935 0
10225 10900 9936 0
10901 10900 10225 0
8379 9331 10226 0
9331 10902 10226 0
9334 10227 10903 0
10585 10904 10586 0
10586 10904 10905 0
10586 10905 10232 0
9936 10900 10573 0
10574 10573 10900 0
10901 10574 10900 0
10575 10574 10901 0
10902 10575 10901 0
9331 10575 10902 0
10576 10229 10906 0
9939 10907 10229 0
10907 9939 10577 0
10908 10907 10577 0
10580 10581 10909 0
10579 10580 10909 0
10582 10584 10583 0
10589 10576 10910 0
10910 10576 10906 0
10577 10588 10908 0
10908 10588 10911 0
10579 10912 10587 0
10913 10912 10909 0
10912 10579 10909 0
10590 10589 10910 0
10914 10911 10588 0
10588 10591 10914 0
10587 10912 10592 0
10913 10592 10912 0
10915 10594 10239 0
10915 10239 10916 0
10916 10593 10910 0
10916 10239 10593 0
10590 10910 10593 0
10917 10911 10914 0
10918 10911 10917 0
10914 10591 10917 0
10591 10592 10919 0
10594 10915 10920 0
10918 10921 10922 0
10918 10917 10921 0
10917 10591 10921 0
10921 10591 10919 0
10582 10595 10923 0
10921 10924 10922 0
10601 10925 10926 0
10600 10925 10601 0
10923 10595 10926 0
10926 10595 10601 0
10597 10598 10927 0
8865 10927 10598 0
10928 10927 8865 0
10928 8865 7961 0
10928 7961 10929 0
10604 10930 10925 0
10604 10925 10602 0
10602 10925 10600 0
10931 10244 10597 0
10603 10932 10933 0
10932 10603 9951 0
10606 10930 10242 0
10930 10604 10242 0
10608 10244 10931 0
10603 10934 10605 0
10603 10933 10934 0
10610 10250 10935 0
10250 10936 10935 0
10610 10247 10255 0
10606 10247 10610 0
10609 10605 10934 0
10937 10936 10613 0
10613 10936 10250 0
10938 10609 10934 0
10612 10609 10938 0
10939 10940 10941 0
10937 10614 10939 0
10939 10614 10940 0
10940 10614 10942 0
10614 10937 10613 0
10608 10943 10607 0
10614 10616 10942 0
10942 10616 10944 0
10616 10617 10944 0
10627 10944 10617 0
10627 10267 10944 0
10267 9994 10945 0
10628 10618 10943 0
10943 10618 10607 0
10946 10621 10612 0
10622 10631 10947 0
10948 10949 10261 0
10948 10261 10947 0
10947 10261 10622 0
10623 10261 10949 0
10624 10623 10949 0
10625 10950 10263 0
10263 10950 10626 0
10950 10632 10626 0
10951 10632 10950 0
10628 10633 10629 0
10952 10633 10628 0
7961 10279 10929 0
10271 10273 10621 0
10946 10271 10621 0
10275 10271 10946 0
10631 10630 10275 0
10632 10951 10266 0
10951 10953 10266 0
10954 10634 10635 0
10635 10955 10954 0
10633 10952 9987 0
10952 10956 9987 0
10953 10278 10266 0
10957 10278 10953 0
10635 10637 10955 0
10955 10637 10958 0
10637 10639 10958 0
10958 10639 10640 0
10959 10958 10640 0
10278 10957 10641 0
10957 10960 10641 0
10640 10643 10959 0
10961 10641 10960 0
10643 10644 10959 0
10959 10644 10962 0
10641 10961 10963 0
10645 10641 10963 0
10964 10645 10963 0
10644 10646 10962 0
9996 10965 9683 0
10964 10647 10645 0
10962 10646 10648 0
9683 10965 10010 0
10294 10966 10967 0
10294 10967 10653 0
9710 10966 10294 0
10968 10654 10301 0
10655 10969 10301 0
10647 10970 10649 0
10649 10970 10007 0
9152 10007 10971 0
10965 10972 10010 0
10650 10651 10973 0
10655 10656 10969 0
10656 10974 10969 0
9152 10971 8652 0
8652 10971 10975 0
10976 10962 10648 0
10972 10298 10010 0
10657 10298 10972 0
10650 10973 10658 0
10656 10659 10974 0
10659 10660 10974 0
10974 10660 10307 0
8652 10975 10308 0
10307 10977 10974 0
10665 10977 10307 0
10666 10978 10665 0
10665 10978 10977 0
10664 10979 10980 0
10311 10664 10980 0
10979 10664 10658 0
10978 10666 10981 0
10666 10667 10981 0
10667 10982 10981 0
10663 10982 10670 0
10663 10670 10314 0
10976 10669 10983 0
10648 10669 10976 0
10668 10306 10984 0
10306 10657 10984 0
10012 9401 10661 0
10311 10980 10317 0
10980 10674 10317 0
10667 10670 10982 0
10983 10669 10671 0
10668 10985 10673 0
10985 10668 10984 0
10986 10983 10671 0
10671 10672 10987 0
10672 10673 10988 0
10987 10672 10988 0
10673 10989 10988 0
10673 10985 10989 0
10990 10991 10992 0
10993 10991 10990 0
10994 10986 10671 0
10987 10995 10671 0
10995 10994 10671 0
10996 10995 10988 0
10995 10987 10988 0
10674 10322 10321 0
10675 10322 10674 0
10993 10990 10676 0
10679 10676 10990 0
10992 10679 10990 0
10995 10997 10994 0
10998 10995 10996 0
10997 10995 10998 0
10679 10323 10676 0
10680 10679 10992 0
10999 10680 10992 0
11000 11001 10994 0
11002 11000 10994 0
11002 10994 10997 0
10998 11002 10997 0
10038 10675 10678 0
10676 10677 11003 0
10676 11003 11004 0
10999 10686 10680 0
10687 10686 10999 0
10681 11005 10682 0
10681 10683 11006 0
11005 10681 11006 0
10683 11007 11006 0
10683 10678 11007 0
10678 10675 11007 0
11004 11003 11008 0
10677 10685 11003 0
10687 11009 11010 0
11005 11011 10688 0
10682 11005 10688 0
11006 11012 11005 0
11012 11011 11005 0
11012 11006 11007 0
11008 11013 11014 0
11003 11015 11008 0
11015 11013 11008 0
10685 10690 11015 0
11003 10685 11015 0
10687 11010 10691 0
10691 11010 10693 0
11010 11016 10693 0
10334 10688 11011 0
10334 11011 11017 0
11012 11017 11011 0
11014 11018 11012 0
10695 11018 11013 0
11013 11018 11014 0
10692 10695 11013 0
11015 10692 11013 0
10690 10692 11015 0
10693 11019 10697 0
10693 11016 11019 0
10697 11019 10698 0
11017 11020 10334 0
11012 11020 11017 0
11018 11021 11012 0
10695 10696 11021 0
11018 10695 11021 0
10698 11022 10699 0
11019 11022 10698 0
10334 11020 10700 0
11012 11023 11020 0
11021 11023 11012 0
10696 10701 11023 0
10696 11023 11021 0
10699 11022 11024 0
10699 11024 10702 0
10700 11020 10346 0
11023 11025 11020 0
11024 11022 11026 0
10346 11020 10349 0
10701 10707 11025 0
11023 10701 11025 0
11026 11027 11024 0
10702 11027 10705 0
11024 11027 10702 0
10349 11020 10711 0
10708 10711 11020 0
11025 10708 11020 0
10707 10708 11025 0
11027 10714 10705 0
10714 11028 10721 0
10723 11028 11029 0
11028 10714 11029 0
10721 11028 10723 0
10715 11030 10716 0
10717 11030 10715 0
10724 11031 10717 0
10723 11029 10386 0
11031 10724 11032 0
11029 11033 10386 0
11032 10724 11034 0
11033 11035 10386 0
11035 11036 10386 0
10386 11036 10725 0
11036 11037 10725 0
10725 11037 10726 0
10726 11038 10388 0
10388 11038 10727 0
11039 10735 11040 0
10728 10727 11041 0
10727 11038 11041 0
10724 10393 11034 0
11039 10733 10398 0
10399 11039 10398 0
10735 11039 10399 0
11042 10728 11041 0
10730 10728 11042 0
10734 11040 10735 0
10734 11043 11040 0
10729 11044 11045 0
10730 11044 10729 0
11042 11044 10730 0
10393 10737 11034 0
10739 10729 11045 0
10739 11045 11046 0
11047 11045 11044 0
10405 10411 10088 0
10411 10405 10406 0
10407 10750 10734 0
11046 11048 10744 0
10739 11046 10744 0
11045 11049 11046 0
11049 11048 11046 0
11050 11045 11047 0
11049 11045 11050 0
10744 11051 10746 0
10744 11048 11051 0
11049 11051 11048 0
11052 11051 11049 0
11050 11052 11049 0
10751 10746 11053 0
10752 10753 11054 0
10752 11054 10749 0
10749 11054 10737 0
10754 10751 11055 0
11056 11057 10419 0
11056 10419 11058 0
11058 10419 9779 0
11057 11056 11059 0
11056 11060 11059 0
10751 11061 11055 0
11062 10751 11053 0
11061 10751 11062 0
11059 11063 11057 0
11063 11064 11057 0
11063 11059 11065 0
11055 11066 10756 0
10754 11055 10756 0
11067 11066 11061 0
11066 11055 11061 0
11062 11067 11061 0
11068 11054 10753 0
10755 11068 10753 0
11057 11069 10102 0
10419 11057 10102 0
11069 11057 11064 0
11070 11064 11063 0
10757 11071 10750 0
11066 11072 11073 0
11066 11073 10756 0
10756 11073 10421 0
11067 11072 11066 0
11068 10755 11074 0
11069 11075 11076 0
11069 11076 10102 0
11064 11075 11069 0
10758 11071 10757 0
10755 10759 11074 0
10102 11076 9791 0
10758 10426 11077 0
11077 11071 10758 0
10421 11073 10762 0
11073 11078 10762 0
10426 10765 11077 0
10762 11078 10764 0
10426 10425 10765 0
11079 11080 10767 0
10767 11080 10763 0
10767 10769 11081 0
11079 10767 11081 0
9791 11082 11083 0
11083 10110 9791 0
10768 10431 11084 0
10775 11085 11086 0
11085 11079 11086 0
11079 11087 11086 0
10770 11087 11081 0
11081 11087 11079 0
10769 10770 11081 0
11084 10431 10771 0
10776 11088 11089 0
11089 11088 11090 0
10775 10776 11089 0
11086 10437 10775 0
11087 10437 11086 0
10770 10437 11087 0
9481 11091 10772 0
11088 10776 10778 0
11091 10777 10772 0
11092 10777 11091 0
10773 9807 11093 0
11092 11094 10777 0
9807 10441 11093 0
11094 10781 10777 0
10782 11095 10441 0
10442 10784 10127 0
11096 10781 11097 0
10783 10781 11096 0
10442 11098 10784 0
10782 10786 11095 0
11099 11095 11100 0
11100 11095 10786 0
10784 11098 10787 0
10790 10786 10456 0
11100 10786 10790 0
10790 11101 11100 0
11101 11099 11100 0
10791 11099 11101 0
11102 10788 11098 0
10788 10787 11098 0
11103 10783 11096 0
10790 10789 11101 0
10791 11101 10789 0
11104 10791 10792 0
10792 11105 11104 0
11102 11104 11106 0
11106 11104 11105 0
10788 11106 10793 0
11102 11106 10788 0
11107 10778 10459 0
10798 10783 11103 0
10794 10783 10798 0
10792 10800 11105 0
10797 11105 10800 0
11106 11105 10797 0
10793 11106 10797 0
11108 10802 11109 0
11109 10802 10798 0
11107 10459 11110 0
11108 11111 10803 0
10802 11108 10803 0
10804 11112 11110 0
10459 10804 11110 0
10803 11111 10472 0
10805 10472 11111 0
11113 11108 11114 0
11113 11115 11108 0
11115 11111 11108 0
10470 11116 10804 0
11116 11112 10804 0
10805 11111 11117 0
11117 11111 11115 0
11118 11117 11115 0
10470 10476 11116 0
10805 11117 10806 0
10807 10806 11117 0
11118 10807 11117 0
10807 11118 10479 0
11119 10157 10479 0
10157 11119 10483 0
10811 11120 11121 0
10811 11121 10812 0
11122 10813 10814 0
10810 11123 10816 0
10817 11124 11122 0
10817 11122 10814 0
10819 10816 11123 0
10811 10826 11120 0
10826 11125 11120 0
10821 11124 10817 0
11126 11124 10821 0
10824 10819 11123 0
10821 11127 11126 0
10821 10823 11127 0
10823 11128 11127 0
10490 11128 10823 0
10491 11129 10827 0
10490 11130 11128 0
10490 10829 11130 0
11129 10832 10827 0
10828 10833 11131 0
10834 11131 11132 0
10834 10828 11131 0
10834 10164 10828 0
10499 10494 10842 0
10832 11133 10494 0
11133 10832 11129 0
10837 10501 11134 0
10837 11135 10838 0
11134 11135 10837 0
10833 10838 11135 0
10833 11135 11131 0
10835 10834 11132 0
11136 10835 11132 0
11136 10836 10835 0
11136 11137 10836 0
11137 10839 10836 0
10830 10493 11138 0
10493 10840 11138 0
11139 10825 10830 0
10831 10825 11139 0
10499 10842 10173 0
10501 10500 11140 0
10501 11140 11134 0
11140 11141 11134 0
11141 11135 11134 0
9872 11142 10182 0
11138 10840 10841 0
11143 11138 10841 0
11140 10500 11144 0
10500 10843 11144 0
10504 10839 11145 0
11142 9872 10509 0
11142 10509 10845 0
10182 11142 10510 0
10841 10846 11143 0
11144 10843 10505 0
10512 11144 10505 0
11146 10504 11145 0
11146 11147 10504 0
11147 10847 10504 0
10844 11148 11149 0
10844 11149 10845 0
10848 11150 10846 0
10846 11150 11143 0
9882 9879 11151 0
10849 9882 11151 0
10849 11152 10850 0
10512 9883 11153 0
11153 9883 10850 0
10844 9877 10854 0
10844 10854 11148 0
11148 10854 11154 0
11150 10848 11155 0
10849 11151 11156 0
11152 10849 11156 0
10851 10847 11157 0
10851 11157 11158 0
10853 10851 11159 0
10851 11158 11159 0
11154 10854 10853 0
11159 11154 10853 0
10848 10519 11155 0
11155 10519 11160 0
10855 11161 11160 0
10855 11160 10519 0
10856 11161 10855 0
10856 10521 11162 0
10521 10522 11163 0
11162 10521 11163 0
9886 11164 10857 0
10526 11163 10522 0
10857 11165 10858 0
11164 11165 10857 0
11165 11166 10858 0
11166 10524 10858 0
11167 10524 11166 0
10524 11167 10859 0
11168 11169 10527 0
11169 10526 10527 0
11170 10859 11167 0
10859 11170 10860 0
11170 11171 10860 0
10861 11168 10527 0
11172 10860 11173 0
11173 10860 11171 0
10860 11172 10534 0
11168 10861 10862 0
11174 11172 11173 0
11175 11174 11173 0
10534 11172 11176 0
11172 11174 11176 0
10534 11176 10863 0
11174 11177 11178 0
11174 11178 11176 0
10863 11178 10864 0
11176 11178 10863 0
10865 11178 11177 0
10865 10864 11178 0
11179 10866 10865 0
10862 10866 11179 0
11180 10871 10545 0
10868 10545 10199 0
10868 11181 10545 0
11181 11180 10545 0
10867 11181 10868 0
11182 11181 10867 0
10869 11182 10867 0
11183 9911 10874 0
10875 11184 10874 0
10874 11184 11183 0
10870 10875 10543 0
10870 11184 10875 0
10871 11184 10870 0
11185 11184 10871 0
10549 11186 10548 0
9911 11187 10549 0
11187 11186 10549 0
11188 10878 10877 0
11189 10876 10881 0
11188 10882 10878 0
11188 10210 10882 0
11190 11188 10877 0
10885 10886 10884 0
11191 10881 10562 0
10563 11192 10891 0
11192 10563 11193 0
11193 10563 10886 0
10889 10559 11194 0
10559 10887 11194 0
10890 11195 11196 0
10890 10889 11195 0
10889 11194 11195 0
11196 11197 11198 0
11195 11197 11196 0
11197 11199 11198 0
11192 11200 10893 0
10891 11192 10893 0
10566 10216 11201 0
10216 10565 11201 0
10894 10890 11196 0
11198 11202 11196 0
11202 10894 11196 0
11203 11198 11199 0
11202 11198 11203 0
10895 10893 11200 0
10895 11200 11204 0
10565 9933 11205 0
10896 10897 11206 0
10888 11206 10897 0
10888 11207 11206 0
10894 11207 10888 0
11208 11207 10894 0
11202 11208 10894 0
11203 11208 11202 0
11204 11209 10225 0
10895 11204 10225 0
11200 11210 11204 0
11210 11209 11204 0
10896 11211 10899 0
11206 11211 10896 0
11212 11213 11214 0
11215 11213 11212 0
11210 11216 11209 0
11217 10570 10226 0
10570 11217 10571 0
10899 11211 10227 0
11218 11212 11219 0
11214 11220 11212 0
11220 11219 11212 0
11221 11214 11213 0
11221 11220 11214 0
11220 11222 10905 0
11221 11222 11220 0
10225 11209 10901 0
10902 10901 11209 0
11216 10902 11209 0
10226 10902 11216 0
11217 10226 11216 0
11223 10903 10227 0
11211 11223 10227 0
10904 11218 11219 0
10904 10585 11218 0
10585 11224 11218 0
11220 10904 11219 0
10905 10904 11220 0
10905 11222 11225 0
10905 11225 10232 0
10907 11226 10229 0
10908 11226 10907 0
11226 10908 11227 0
11228 10909 10581 0
11228 10581 9334 0
11228 9334 10903 0
11224 10585 10584 0
11229 11224 10584 0
10911 11227 10908 0
11228 10913 10909 0
10916 10910 10906 0
10592 10913 11230 0
11229 10584 10582 0
11231 11229 10582 0
11232 11227 10911 0
10918 11232 10911 0
11230 11233 10919 0
10592 11230 10919 0
10913 11234 11230 0
11234 11233 11230 0
10582 10923 11235 0
10923 11236 11235 0
11235 11231 10582 0
10918 10922 11232 0
11232 10922 11237 0
10921 10919 11233 0
10597 10927 11238 0
10927 10928 11238 0
10924 11239 11240 0
10924 11240 11237 0
10924 11237 10922 0
11241 11237 11240 0
10924 10921 11233 0
10924 11233 11239 0
11242 11243 11244 0
11244 10926 10925 0
11244 11243 10926 0
11243 11245 10926 0
11236 10923 10926 0
11245 11236 10926 0
11246 10597 11238 0
9951 11247 11248 0
10932 9951 11248 0
10599 11249 9951 0
9951 11249 11247 0
11233 10610 11239 0
11234 10610 11233 0
11242 10610 11234 0
11250 10610 11242 0
11244 11250 11242 0
10930 11250 11244 0
10925 10930 11244 0
10931 11246 11251 0
11246 10931 10597 0
10932 11252 10933 0
10932 11248 11252 0
11253 11241 11240 0
11254 11241 11253 0
11239 11253 11240 0
10610 10935 11255 0
10610 11255 11239 0
10606 10610 11250 0
10930 10606 11250 0
10608 10931 11256 0
10931 11251 11256 0
10934 10933 11252 0
11254 11257 11258 0
11254 11253 11257 0
11253 11239 11257 0
11255 11259 11239 0
11259 11257 11239 0
10935 10936 11259 0
11255 10935 11259 0
10943 10608 11256 0
11260 10934 11252 0
11261 11258 10941 0
10939 10941 11257 0
11257 10941 11258 0
11257 11259 10937 0
11257 10937 10939 0
10936 10937 11259 0
10938 10934 11260 0
10941 10940 11261 0
11261 10940 11262 0
10940 10942 11262 0
10942 11263 11262 0
11263 10267 10945 0
10938 11264 10612 0
11265 11266 10938 0
11266 11264 10938 0
11266 11265 10631 0
11265 10948 10631 0
10942 10944 11263 0
10267 11263 10944 0
10945 9994 10634 0
10954 11267 11268 0
10628 10943 11269 0
10612 11264 10946 0
10275 10946 11264 0
11266 10275 11264 0
10631 10275 11266 0
10948 10947 10631 0
10625 11270 10950 0
11270 10951 10950 0
11270 11271 10951 0
11271 11272 10951 0
11268 11267 11273 0
11273 11267 10954 0
11268 11273 11274 0
10628 11269 10952 0
10929 10279 11275 0
11272 10953 10951 0
11272 11276 10953 0
10955 11273 10954 0
11277 11274 11273 0
10955 11277 11273 0
11278 10956 10952 0
10953 11276 10957 0
11276 11279 10957 0
10955 10958 10959 0
10955 10959 11277 0
11279 10960 10957 0
11279 11280 10960 0
10956 11281 9987 0
10960 11280 10961 0
11280 11282 10961 0
10959 10962 11283 0
9987 11281 9996 0
11284 10654 10968 0
10961 11282 11285 0
10963 10961 11285 0
10964 10963 11286 0
10963 11285 11286 0
11287 9710 11288 0
11287 10966 9710 0
11289 11288 9710 0
10654 11289 9710 0
10964 10970 10647 0
10279 10662 11275 0
10967 11290 10653 0
10968 10301 11291 0
11291 10301 11292 0
10301 10969 11292 0
11292 10969 10974 0
10007 10970 11293 0
10651 11294 10973 0
10652 11295 10651 0
10651 11295 11294 0
11290 10652 10653 0
11295 10652 11290 0
10974 11296 11292 0
10971 11297 11298 0
10971 11298 10975 0
10657 10972 11299 0
10973 10979 10658 0
10974 11300 11296 0
10975 11298 10308 0
11298 11301 10308 0
11302 10657 11299 0
10974 10977 11300 0
11303 10663 11304 0
10663 11305 11304 0
11301 10663 10308 0
11305 10663 11301 0
10962 10976 11306 0
10982 10978 10981 0
11303 10978 10982 0
10663 11303 10982 0
10984 10657 11302 0
11307 10662 10661 0
10984 11308 10985 0
11302 11308 10984 0
10674 11309 11310 0
10674 10980 11309 0
11311 10991 11312 0
10991 10993 11312 0
11313 10991 11311 0
10991 11314 11315 0
11313 11314 10991 0
11316 11317 10986 0
10986 11317 10983 0
10985 11308 10989 0
10674 11310 11318 0
11318 11310 11319 0
11320 11310 11309 0
11319 11310 11320 0
11312 11321 11322 0
10993 11321 11312 0
11317 11316 11323 0
10986 10994 11324 0
11316 10986 11324 0
10988 11325 10996 0
10988 10989 11325 0
10675 10674 11318 0
11319 11326 11318 0
11320 11326 11319 0
11320 11327 11326 0
11328 11322 11327 0
10676 11004 11322 0
11321 10676 11322 0
10993 10676 11321 0
10999 10992 10991 0
10999 10991 11329 0
11329 10991 11315 0
11330 11329 11315 0
11315 11331 11330 0
11323 11316 11332 0
11316 11001 11332 0
10994 11001 11324 0
11324 11001 11316 0
10996 11325 11333 0
10996 11333 10998 0
11318 11334 10675 0
11327 11335 11326 0
11004 11335 11322 0
11322 11335 11327 0
10687 10999 11329 0
11330 10687 11329 0
10687 11330 11331 0
11002 10998 11336 0
10998 11333 11336 0
11318 11335 11334 0
11326 11335 11318 0
10687 11331 11009 0
11009 11337 11010 0
11001 11338 11332 0
11001 11000 11339 0
11339 11000 11002 0
10675 11334 11007 0
11004 11008 11335 0
11001 11340 11338 0
11341 11339 11342 0
11341 11340 11339 0
11340 11001 11339 0
11002 11342 11339 0
11343 11342 11002 0
11336 11343 11002 0
11007 11334 11012 0
11014 11012 11334 0
11335 11014 11334 0
11008 11014 11335 0
11344 11010 11345 0
11345 11010 11337 0
11010 11344 11016 0
11345 11346 11347 0
11345 11347 11344 0
11016 11344 11019 0
11344 11347 11348 0
11019 11348 11022 0
11344 11348 11019 0
11022 11348 11026 0
11026 11348 11349 0
11026 11349 11027 0
11349 11348 11350 0
11349 11350 11027 0
8908 10703 11351 0
11027 11350 10714 0
10703 10716 11351 0
10714 11350 11029 0
11352 11347 11353 0
11348 11347 11354 0
11354 11347 11352 0
11350 11348 11354 0
11030 11355 10716 0
11355 11351 10716 0
11030 10717 11031 0
11356 11355 11030 0
11357 11355 11356 0
11031 11358 11030 0
11358 11356 11030 0
11031 11359 11358 0
11031 11032 11359 0
11350 11033 11029 0
11358 11359 11360 0
11032 11034 11360 0
11359 11032 11360 0
11361 11035 11033 0
11360 11034 11362 0
11363 11035 11361 0
11035 11363 11036 0
11362 11034 11364 0
11036 11365 11037 0
11363 11365 11036 0
11366 11367 11368 0
11367 11366 11369 0
11369 11366 11370 0
11365 11371 11037 0
11371 10726 11037 0
11372 11366 11368 0
11373 11372 11368 0
11039 11366 11372 0
11370 11366 11039 0
11374 11370 11039 0
11375 11370 11374 0
11043 11375 11374 0
11038 10726 11376 0
11376 10726 11371 0
11373 11377 11372 0
11372 11377 11378 0
11039 11372 11378 0
11040 11374 11039 0
11043 11374 11040 0
11375 11043 11379 0
11038 11376 11041 0
11376 11380 11041 0
11377 10732 10733 0
11378 11377 10733 0
11039 11378 10733 0
11381 11042 11380 0
11042 11041 11380 0
11364 11034 10737 0
10731 11382 10738 0
11383 11382 10732 0
11382 10731 10732 0
11384 11375 11379 0
11044 11381 11385 0
11044 11385 11386 0
11042 11381 11044 0
10734 10750 11043 0
11387 11384 11379 0
11387 11379 11043 0
11388 11047 11386 0
11047 11044 11386 0
11047 11389 11050 0
11388 11389 11047 0
11389 11390 11051 0
11389 11051 11052 0
10746 11051 11390 0
11050 11389 11052 0
11053 10746 11390 0
10411 11391 9779 0
11392 11053 11390 0
11393 11058 11391 0
11391 11058 9779 0
11387 11043 11394 0
11394 11043 10750 0
11394 11395 11387 0
11392 11396 11053 0
11058 11393 11397 0
11058 11397 11056 0
11056 11397 11398 0
11060 11056 11398 0
11059 11398 11399 0
11059 11060 11398 0
11398 11400 11399 0
10750 11395 11394 0
11053 11396 11062 0
11396 11401 11062 0
11059 11399 11065 0
11400 11402 11399 0
11402 11065 11399 0
11402 11400 11403 0
11401 11067 11062 0
11404 11067 11401 0
11070 11063 11405 0
11063 11065 11405 0
11405 11065 11406 0
11406 11065 11402 0
11067 11404 11072 0
11075 11407 11408 0
11076 11075 11408 0
11064 11409 11075 0
11409 11407 11075 0
11070 11409 11064 0
11406 11070 11405 0
11410 11070 11406 0
11402 11410 11406 0
11076 11408 9791 0
11071 11077 11411 0
11071 11411 11412 0
11073 11072 11078 0
11078 11072 11413 0
10763 11414 11415 0
11415 10759 10763 0
10765 11411 11077 0
10765 11416 11411 0
11416 11412 11411 0
11078 11417 10764 0
11413 11417 11078 0
11080 11414 10763 0
10764 11417 10766 0
11418 11419 11420 0
11080 11419 11414 0
11080 11085 11419 0
11080 11079 11085 0
9791 11408 11082 0
10768 11416 10765 0
11420 11421 11422 0
11420 11090 11421 0
11089 11090 11420 0
11089 11420 11423 0
11085 11423 11420 0
11419 11085 11420 0
11421 11090 11088 0
10775 11089 11423 0
11085 10775 11423 0
10110 11083 9481 0
11083 11424 9481 0
11424 11091 9481 0
10773 11084 10771 0
11425 11426 10766 0
11091 11424 11092 0
11424 11427 11092 0
10766 11426 10442 0
11428 11092 11427 0
11094 11092 11428 0
11093 10441 11429 0
11430 11093 11431 0
11431 11093 11429 0
11431 11432 11430 0
11433 10442 11426 0
11094 11097 10781 0
11094 11428 11097 0
11428 11434 11097 0
10441 11095 11429 0
11095 11435 11429 0
11435 11431 11429 0
11432 11431 11436 0
11436 11431 11435 0
11432 11436 11437 0
11433 11438 10442 0
11439 11096 11434 0
11434 11096 11097 0
11099 11435 11095 0
11436 11435 11099 0
11099 11437 11436 0
11438 11433 11440 0
10442 11438 11098 0
11096 11439 11441 0
11099 11442 11437 0
11440 11437 11442 0
11438 11440 11442 0
11099 10791 11442 0
11104 11442 10791 0
11102 11442 11104 0
11438 11442 11102 0
11098 11438 11102 0
11103 11096 11441 0
11103 11443 11109 0
10798 11103 11109 0
11444 11443 11103 0
11103 11445 11444 0
11109 11443 11108 0
11108 11443 11446 0
11446 11443 11444 0
11447 11444 11445 0
11446 11444 11447 0
11110 11448 11107 0
11446 11114 11108 0
11446 11447 11114 0
11447 11449 11114 0
11110 11112 11448 0
11114 11449 11450 0
11113 11114 11450 0
11115 11451 11452 0
11115 11113 11451 0
11113 11450 11451 0
11452 11453 11454 0
11451 11453 11452 0
11116 10476 11448 0
11112 11116 11448 0
11115 11452 11118 0
10479 11118 11452 0
10479 11452 11455 0
11455 11452 11454 0
11119 11455 11454 0
11454 10483 11119 0
11119 10479 11455 0
10483 11456 10160 0
10476 10813 11457 0
10813 11458 11457 0
11458 10813 11459 0
10809 11460 11461 0
10810 10809 11461 0
10809 10812 11460 0
11459 10813 11122 0
10810 11461 11123 0
11462 11463 11464 0
11459 11122 11124 0
11465 11459 11124 0
10160 11463 11466 0
11466 11463 11462 0
11124 11126 11465 0
11465 11126 11467 0
11468 10824 11123 0
11469 10824 11468 0
10160 11466 10491 0
10491 11466 11470 0
11126 11127 11467 0
11128 11471 11127 0
10491 11472 11129 0
11470 11472 10491 0
11128 11473 11471 0
11130 11473 11128 0
10829 11469 11130 0
11130 11469 11473 0
11469 10829 10824 0
11474 10826 11475 0
11472 11476 11129 0
10826 10831 11475 0
11133 11477 10494 0
11129 11476 11133 0
11476 11477 11133 0
11135 11478 11131 0
11131 11478 11132 0
11139 11479 10831 0
10831 11479 11475 0
11135 11141 11480 0
11135 11480 11478 0
11132 11481 11136 0
11137 11481 10839 0
11136 11481 11137 0
11138 11143 11482 0
11138 11482 10830 0
11139 10830 11482 0
11140 11144 11483 0
11483 11141 11140 0
11145 10839 11481 0
11484 11142 10845 0
10510 11142 11485 0
11142 11484 11485 0
11485 9880 10510 0
11482 11143 11486 0
11144 10512 11483 0
11487 11141 11483 0
11148 11488 11149 0
11143 11150 11486 0
11486 11150 11489 0
11151 9879 11490 0
10850 11152 11491 0
11491 11153 10850 0
11483 10512 11153 0
11146 11145 11492 0
11147 11492 10847 0
11146 11492 11147 0
11493 11148 11154 0
11493 11488 11148 0
11155 11494 11489 0
11489 11150 11155 0
11151 11490 11495 0
11156 11151 11495 0
11492 11145 11496 0
10847 11497 11157 0
10847 11492 11497 0
11492 11496 11497 0
11497 11158 11157 0
11498 11159 11158 0
11493 11154 11159 0
11493 11159 11499 0
11499 11159 11498 0
11497 11496 11500 0
11501 11497 11500 0
11158 11497 11501 0
11498 11158 11501 0
11155 11160 11494 0
11161 11502 11160 0
11160 11502 11494 0
11503 11502 11161 0
10856 11503 11161 0
11504 11162 11163 0
9886 11505 11164 0
11506 11504 11163 0
11507 11504 11506 0
11163 11508 11506 0
11163 10526 11508 0
11507 11506 11509 0
11506 11508 11509 0
10526 11169 11509 0
11508 10526 11509 0
11165 11510 11166 0
11509 11169 11511 0
11166 11512 11167 0
11510 11512 11166 0
11169 11168 11511 0
11170 11512 11513 0
11170 11167 11512 0
11511 11168 11514 0
11170 11515 11171 0
11513 11515 11170 0
11515 11516 11171 0
11516 11173 11171 0
11168 10862 11514 0
11173 11516 11175 0
11177 11174 11175 0
11177 11175 11517 0
11517 11175 11516 0
11518 11177 11517 0
11519 11518 11517 0
11518 11520 11177 0
11177 11521 10865 0
11177 11520 11521 0
11521 11179 10865 0
11179 11522 10862 0
11523 11520 11524 0
11525 11523 11524 0
11521 11520 11523 0
11179 11521 11523 0
11526 11179 11523 0
11527 11522 11179 0
11526 11527 11179 0
11526 11523 11528 0
11529 11526 11528 0
11527 11526 11529 0
11182 11530 11531 0
10869 11530 11182 0
10872 11530 10869 0
11183 11184 11532 0
11532 11184 11533 0
11533 11184 11185 0
11180 11185 10871 0
11180 11534 11185 0
11534 11533 11185 0
11181 11534 11180 0
11535 11534 11181 0
11182 11535 11181 0
11536 11535 11182 0
11537 11186 11187 0
11183 11187 9911 0
11532 11187 11183 0
10873 11189 10872 0
11189 10873 10876 0
11538 10877 10879 0
11186 10879 10548 0
11539 10879 11186 0
10210 11540 10555 0
11540 10210 11188 0
11188 11190 11540 0
11538 11190 10877 0
11541 10886 10885 0
11541 10885 10555 0
11540 11542 10555 0
11542 11541 10555 0
10881 11191 11189 0
10886 11541 11543 0
11544 11191 10562 0
11193 10886 11545 0
11192 11193 11545 0
11543 11545 10886 0
11546 11195 11194 0
11197 11195 11547 0
11195 11546 11547 0
11547 11199 11197 0
11548 11199 11547 0
10565 11549 11201 0
11550 11549 10565 0
11549 11551 11201 0
11551 10566 11201 0
10887 10566 11552 0
11552 10566 11551 0
11194 10887 11552 0
11553 11194 11552 0
11554 11555 11203 0
11554 11203 11548 0
11548 11203 11199 0
11555 11556 11557 0
11554 11556 11555 0
11192 11558 11210 0
11200 11192 11210 0
11545 11559 11192 0
11559 11558 11192 0
11205 11550 10565 0
11205 11560 11550 0
11560 11549 11550 0
11208 11203 11555 0
11557 11208 11555 0
11561 11557 11556 0
11561 11562 11557 0
10562 8583 11544 0
11559 11563 11558 0
11205 9933 11564 0
11564 9933 11565 0
11560 11205 11564 0
11208 11206 11207 0
11566 11206 11208 0
11557 11567 11208 0
11567 11566 11208 0
11215 11212 11567 0
11215 11567 11562 0
11562 11567 11557 0
11562 11561 11215 0
11215 11561 11213 0
11568 11213 11561 0
11210 11558 11216 0
11217 11216 11558 0
11563 11217 11558 0
10571 11217 11563 0
11569 10571 11563 0
9604 10571 11569 0
11567 11570 11566 0
11212 11218 11567 0
11221 11213 11568 0
11222 11221 11568 0
11567 11571 11570 0
11218 11224 11571 0
11567 11218 11571 0
11222 11568 11225 0
11226 11572 10229 0
11226 11573 11572 0
11573 11226 11227 0
11574 11573 11227 0
11228 11575 11576 0
10903 11575 11228 0
11223 11575 10903 0
11577 11575 11223 0
11578 11570 11579 0
11229 11579 11571 0
11571 11579 11570 0
11224 11229 11571 0
10913 11228 11576 0
10913 11576 11580 0
11580 11576 11581 0
11581 11576 11575 0
11229 11578 11579 0
11229 11582 11578 0
11583 11584 11231 0
11582 11229 11231 0
11584 11582 11231 0
10920 10915 11585 0
11227 11232 11574 0
10913 11580 11234 0
11586 11587 11588 0
11588 11587 11236 0
11587 11589 11236 0
11590 11583 11235 0
11590 11235 11589 0
11589 11235 11236 0
11231 11235 11583 0
10920 11585 10594 0
11232 11237 11574 0
11574 11237 11591 0
11580 11592 11234 0
11581 11592 11580 0
11586 11592 11581 0
11593 11592 11586 0
11588 11593 11586 0
11236 11593 11588 0
11238 10928 11594 0
11275 10928 10929 0
10240 11595 11596 0
11234 11592 11242 0
11243 11242 11592 0
11593 11243 11592 0
11245 11243 11593 0
11236 11245 11593 0
11246 11594 11597 0
11238 11594 11246 0
11247 11598 11248 0
11247 11249 11599 0
11598 11247 11599 0
11599 11249 11596 0
11596 11249 10599 0
11596 10599 10240 0
11241 11600 11601 0
11237 11241 11601 0
11246 11602 11251 0
11598 11603 11252 0
11248 11598 11252 0
11603 11598 11599 0
11601 11600 11254 0
11600 11241 11254 0
11256 11251 11602 0
11252 11603 11260 0
11254 11258 11601 0
10943 11256 11602 0
10938 11260 11604 0
11605 11606 10624 0
10624 11607 11608 0
10624 11606 11607 0
11263 11261 11262 0
10945 11609 11263 0
10945 10634 11609 0
11610 10943 11602 0
10938 11604 11611 0
10938 11611 11265 0
11265 11611 11605 0
10948 11265 11605 0
10949 10948 11605 0
11605 10624 10949 0
10624 11608 10625 0
10625 11608 11270 0
11268 10634 10954 0
10943 11610 11269 0
10952 11269 11278 0
11276 11612 11279 0
11274 11277 11283 0
11612 11280 11279 0
11613 11280 11612 0
11277 10959 11283 0
11614 11282 11613 0
11613 11282 11280 0
11288 11615 11616 0
11287 11288 11616 0
11617 11615 11289 0
11615 11288 11289 0
11618 10654 11284 0
10968 11619 11284 0
11619 10968 11291 0
11282 11614 11285 0
11286 11285 11614 0
11620 11286 11614 0
11286 10970 10964 0
11286 11620 10970 0
11293 11621 10007 0
10966 11622 11623 0
10967 10966 11623 0
11287 11624 10966 0
10966 11624 11622 0
11624 11287 11616 0
11291 11625 11619 0
11291 11626 11625 0
10967 11623 11290 0
11291 11292 11626 0
10007 11627 10971 0
10971 11627 11628 0
11628 11627 11629 0
11630 11629 11631 0
11628 11629 11630 0
10965 11299 10972 0
11294 11632 10973 0
11294 11295 11633 0
11632 11294 11633 0
11295 11634 11633 0
11295 11290 11634 0
11290 11623 11634 0
11292 11296 11626 0
11296 11635 11626 0
11297 11636 11637 0
11298 11297 11637 0
11628 11297 10971 0
11628 11638 11297 0
11638 11636 11297 0
11630 11638 11628 0
11639 11275 11307 0
11632 11640 10979 0
10973 11632 10979 0
11633 11640 11632 0
11634 11641 11633 0
11305 11301 11637 0
11301 11298 11637 0
10962 11306 11283 0
11275 10662 11307 0
10980 10979 11640 0
11633 11641 11640 0
11300 10977 11642 0
10977 10978 11642 0
11303 11643 10978 0
10978 11643 11642 0
11643 11303 11304 0
10980 11640 11644 0
11645 11646 11641 0
11647 11646 11645 0
11647 11648 11649 0
11306 10976 10983 0
11650 11306 10983 0
11651 11307 10661 0
11311 11312 11646 0
11647 11311 11646 0
11313 11311 11647 0
11313 11647 11652 0
11652 11647 11649 0
10983 11317 11650 0
11650 11317 11653 0
11308 11302 11654 0
10980 11644 11309 0
11641 11655 11640 0
11656 11655 11641 0
11312 11656 11646 0
11646 11656 11641 0
11652 11657 11313 0
11313 11657 11314 0
11315 11314 11658 0
11314 11657 11658 0
11659 11653 11317 0
11660 11308 11654 0
10989 11308 11660 0
9401 11661 10661 0
10661 11661 11651 0
11309 11644 11320 0
11662 11320 11644 0
11640 11662 11644 0
11328 11662 11655 0
11655 11662 11640 0
11322 11328 11655 0
11656 11322 11655 0
11312 11322 11656 0
11659 11317 11323 0
10989 11660 11325 0
11327 11320 11662 0
11328 11327 11662 0
11663 11664 11323 0
11664 11659 11323 0
11660 11665 11325 0
11666 11009 11331 0
11667 11009 11666 0
11663 11332 11668 0
11323 11332 11663 0
11333 11669 11336 0
11009 11670 11671 0
11009 11667 11670 0
11009 11671 11337 0
11663 11668 11672 0
11332 11338 11668 0
11671 11670 11673 0
11674 11672 11675 0
11668 11676 11672 0
11676 11675 11672 0
11668 11338 11676 0
11341 11342 11677 0
11343 11678 11342 0
11342 11678 11679 0
11669 11343 11336 0
11678 11343 11669 0
9406 8908 11680 0
11671 11673 11681 0
11337 11681 11345 0
11671 11681 11337 0
11676 11682 11675 0
11338 11682 11676 0
11338 11340 11683 0
11682 11338 11683 0
11340 11684 11683 0
11340 11341 11684 0
11341 11677 11684 0
11680 8908 11685 0
11673 11686 11346 0
11346 11686 11687 0
11681 11673 11346 0
11345 11681 11346 0
11682 11688 11675 0
11683 11688 11682 0
8908 11351 11685 0
11346 11687 11353 0
11346 11353 11347 0
11689 11690 11691 0
11687 11690 11689 0
11689 11692 11693 0
11687 11689 11693 0
11693 11692 11694 0
11694 11695 11696 0
11696 11697 11698 0
11694 11696 11698 0
11693 11694 11698 0
11353 11699 11352 0
11352 11700 11354 0
11699 11700 11352 0
11354 11700 11350 0
11698 11697 11701 0
11700 11699 11702 0
11350 11702 11033 0
11700 11702 11350 0
11703 11357 11356 0
11703 11704 11357 0
11704 11355 11357 0
11356 11358 11705 0
11703 11356 11705 0
11033 11702 11706 0
11033 11706 11361 0
11704 11703 11707 0
11703 11705 11707 0
11358 11360 11708 0
11358 11708 11705 0
11705 11708 11707 0
11360 11362 11708 0
11709 11710 11711 0
11701 11711 11698 0
11361 11706 11363 0
11708 11712 11707 0
11712 11713 11707 0
11362 11364 11712 0
11708 11362 11712 0
11714 11715 11698 0
11710 11714 11698 0
11711 11710 11698 0
11687 11693 11716 0
11353 11687 11716 0
11699 11353 11716 0
11706 11702 11365 0
11706 11365 11363 0
11712 11717 11713 0
11367 11718 11719 0
11368 11367 11719 0
11718 11367 11369 0
11720 11369 11370 0
11715 11720 11370 0
11698 11715 11370 0
11375 11698 11370 0
11375 11693 11698 0
11365 11721 11371 0
11722 11373 11719 0
11373 11368 11719 0
11365 11702 11723 0
11376 11721 11723 0
11721 11365 11723 0
11371 11721 11376 0
10732 11724 11725 0
10732 11725 11383 0
11377 11724 10732 0
11722 11724 11377 0
11373 11722 11377 0
11723 11702 11381 0
11376 11381 11380 0
11723 11381 11376 0
11702 11699 11726 0
11381 11726 11385 0
11381 11702 11726 0
11727 11382 11383 0
11375 11384 11693 0
11716 11693 11384 0
11726 11699 11728 0
11385 11728 11386 0
11726 11728 11385 0
10738 11729 10406 0
11384 11387 11730 0
11716 11384 11731 0
11716 11388 11699 0
11728 11699 11388 0
11386 11728 11388 0
11729 10411 10406 0
11731 11384 11732 0
11384 11730 11733 0
11733 11734 11732 0
11733 11732 11384 0
10737 11054 11735 0
10411 11736 11391 0
11387 11395 11730 0
11733 11730 11395 0
11391 11736 11737 0
11393 11391 11737 0
11393 11737 11738 0
11739 11740 11741 0
11741 11740 11742 0
11743 11742 11740 0
11743 11744 11742 0
11745 11746 11744 0
11746 11742 11744 0
11733 11395 11747 0
11396 11392 11748 0
11396 11748 11749 0
11393 11738 11397 0
11398 11397 11738 0
11739 11398 11738 0
11400 11398 11739 0
11741 11400 11739 0
11400 11741 11750 0
11750 11741 11742 0
11751 11750 11742 0
11746 11752 11742 0
11752 11751 11742 0
11753 11746 11745 0
11752 11746 11753 0
11395 10750 11754 0
11754 11755 11395 0
11755 11747 11395 0
11756 11401 11749 0
11401 11396 11749 0
11400 11750 11403 0
11403 11750 11751 0
10750 11071 11754 0
11401 11756 11404 0
11757 11758 11759 0
11054 11068 11735 0
11403 11410 11402 0
11403 11760 11410 0
11404 11756 11072 0
11735 11068 11074 0
11407 11761 11408 0
11407 11409 11762 0
11761 11407 11762 0
11762 11409 11070 0
11410 11763 11070 0
11070 11763 11764 0
11754 11071 11765 0
11755 11754 11766 0
11766 11754 11765 0
11766 11767 11755 0
11756 11768 11072 0
11769 11759 11770 0
11771 11759 11758 0
11770 11759 11771 0
11074 10759 11772 0
11761 11773 11408 0
11773 11762 11774 0
11773 11761 11762 0
11070 11774 11762 0
11775 11774 11070 0
11412 11765 11071 0
11412 11776 11765 0
11767 11766 11776 0
11776 11766 11765 0
11072 11768 11413 0
11777 11769 11770 0
11778 11769 11777 0
11771 11779 11770 0
11779 11777 11770 0
11780 11415 11414 0
11780 11781 11415 0
11781 11782 11415 0
11772 10759 11415 0
11782 11772 11415 0
11773 11082 11408 0
11412 11416 11776 0
11768 11417 11413 0
11783 11417 11768 0
11778 11784 11785 0
11778 11777 11784 0
11777 11779 11784 0
11418 11780 11419 0
11780 11414 11419 0
11786 11082 11773 0
11416 11787 11776 0
11767 11776 11787 0
11417 11783 10766 0
11779 11421 11784 0
11422 11421 11779 0
11418 11420 11422 0
11788 11082 11786 0
11416 10768 11789 0
11787 11416 11789 0
11783 11790 10766 0
11421 11785 11784 0
11791 11785 11421 0
11082 11788 11083 0
11084 11789 10768 0
11084 11792 11789 0
11425 10766 11790 0
11088 11791 11421 0
11083 11788 11424 0
11788 11793 11424 0
11794 11792 11084 0
11424 11793 11795 0
11084 10773 11796 0
11794 11084 11797 0
11797 11084 11796 0
11425 11798 11426 0
11791 11088 10778 0
11795 11427 11424 0
10773 11093 11796 0
11430 11796 11093 0
11797 11796 11430 0
11430 11799 11797 0
11798 11800 11801 0
11798 11801 11426 0
11427 11795 11428 0
11795 11434 11428 0
11430 11432 11799 0
11802 11799 11432 0
11426 11801 11433 0
11791 10778 11107 0
11437 11803 11432 0
11803 11802 11432 0
11800 11802 11803 0
11804 11800 11803 0
11433 11801 11804 0
11801 11800 11804 0
11805 11791 11107 0
11440 11803 11437 0
11804 11803 11440 0
11433 11804 11440 0
11107 11806 11805 0
11806 11107 11807 0
11107 11448 11807 0
11807 11448 11808 0
11441 11809 11103 0
11103 11809 11810 0
11103 11810 11445 0
11810 11811 11445 0
11812 11447 11811 0
11811 11447 11445 0
11812 11813 11449 0
11447 11812 11449 0
11814 11813 11812 0
11449 11813 11450 0
11451 11450 11813 0
11814 11451 11813 0
11814 11815 11451 0
11451 11815 11453 0
11454 11816 11817 0
11454 11453 11816 0
11453 11815 11816 0
11817 11818 11819 0
11816 11818 11817 0
11457 11808 10476 0
10476 11808 11448 0
10483 11454 11817 0
10483 11817 11819 0
11456 10483 11819 0
11819 11820 11456 0
10160 11820 11821 0
11456 11820 10160 0
11820 11822 11821 0
11822 11823 11821 0
11824 11825 11458 0
11458 11825 11457 0
10160 11821 11463 0
11463 11821 11826 0
11823 11827 11821 0
11827 11826 11821 0
11827 11823 11828 0
11824 11458 11459 0
11464 11463 11826 0
11827 11464 11826 0
11464 11827 11828 0
11459 11465 11829 0
11461 11460 11123 0
11464 11830 11462 0
11464 11828 11830 0
11462 11830 11466 0
11466 11830 11831 0
11465 11467 11829 0
11470 11466 11831 0
11127 11832 11467 0
11471 11832 11127 0
10826 11474 11833 0
10826 11833 11125 0
11125 11833 11120 0
11470 11834 11472 0
11471 11835 11832 0
11471 11473 11835 0
11473 11469 11835 0
11836 11833 11474 0
11475 11836 11474 0
11837 11476 11472 0
11476 11838 11477 0
11838 11476 11837 0
11475 11479 11839 0
11480 11840 11478 0
11478 11841 11132 0
11840 11841 11478 0
11132 11841 11481 0
11139 11482 11842 0
11482 11843 11842 0
11839 11479 11139 0
11842 11839 11139 0
11844 11840 11480 0
11840 11845 11841 0
11481 11841 11846 0
11841 11845 11846 0
11481 11846 11145 0
11484 10845 11847 0
11847 11485 11484 0
11843 11482 11486 0
11848 11843 11486 0
10842 11490 9879 0
11487 11480 11141 0
11487 11844 11480 0
11846 11845 11849 0
11846 11849 11145 0
11847 10845 11149 0
11847 11149 11488 0
11850 11485 11847 0
11850 9880 11485 0
11850 10852 9880 0
11486 11489 11848 0
11849 11845 11851 0
11145 11849 11496 0
11152 11156 11852 0
11491 11152 11853 0
11153 11491 11853 0
11854 11153 11853 0
11498 11855 11499 0
11856 11493 11499 0
9557 10852 9561 0
11489 11494 11857 0
11496 11849 11858 0
11496 11858 11500 0
11855 11498 11501 0
11494 11502 11857 0
9561 11505 9886 0
11502 11503 11857 0
10856 11162 11859 0
10856 11859 11503 0
11860 11859 11162 0
11504 11860 11162 0
11504 11507 11861 0
11164 11505 11165 0
11862 11863 11507 0
11863 11861 11507 0
11864 11863 11862 0
11865 11863 11864 0
11507 11509 11866 0
11507 11866 11862 0
11862 11866 11864 0
11509 11511 11866 0
11865 11864 11867 0
11864 11866 11867 0
11866 11511 11867 0
11867 11511 11514 0
11512 11868 11513 0
11868 11515 11513 0
11869 11515 11868 0
11515 11869 11516 0
11869 11870 11516 0
11514 10862 11871 0
11870 11517 11516 0
11872 11519 11517 0
11873 11518 11519 0
11873 11519 11872 0
11518 11873 11520 0
11520 11874 11524 0
11873 11874 11520 0
11874 11875 11524 0
11875 11525 11524 0
11876 11523 11525 0
11876 11525 11877 0
11877 11525 11875 0
11878 11879 11528 0
11879 11529 11528 0
11879 11527 11529 0
11531 11530 11880 0
11881 11535 11536 0
11531 11536 11182 0
11531 11882 11536 0
11882 11881 11536 0
11532 11883 11187 0
11187 11883 11884 0
11533 11885 11532 0
11885 11883 11532 0
11534 11885 11533 0
11535 11885 11534 0
11886 11885 11535 0
11189 11530 10872 0
11539 11887 10879 0
10879 11887 11538 0
11537 11539 11186 0
11537 11888 11539 0
11888 11887 11539 0
11187 11888 11537 0
11889 11888 11187 0
11189 11890 11530 0
11190 11891 11540 0
11538 11892 11190 0
11892 11891 11190 0
11540 11893 11542 0
11191 11894 11189 0
11541 11895 11543 0
11542 11895 11541 0
11545 11543 11896 0
11546 11194 11897 0
11546 11898 11547 0
11897 11898 11546 0
11547 11898 11548 0
11899 11543 11900 0
11901 11552 11551 0
11553 11897 11194 0
11898 11897 11902 0
11902 11897 11553 0
11548 11902 11554 0
11548 11898 11902 0
11554 11903 11556 0
11902 11903 11554 0
11896 11904 11559 0
11545 11896 11559 0
11543 11899 11896 0
11899 11904 11896 0
11549 11905 11906 0
11549 11906 11551 0
11901 11551 11906 0
11553 11552 11901 0
11902 11553 11901 0
11903 11902 11901 0
11561 11903 11907 0
11561 11556 11903 0
11544 8583 11908 0
11559 11904 11563 0
11569 11563 11904 0
11899 11569 11904 0
11899 11909 11569 0
11569 11909 9604 0
9604 11909 9605 0
11565 9933 11910 0
11564 11911 11560 0
11560 11905 11549 0
11560 11911 11905 0
11911 11912 11905 0
11561 11907 11568 0
11565 11910 11913 0
11564 11565 11913 0
11911 11564 11913 0
11912 11911 11913 0
11914 11912 11913 0
11206 11566 11211 0
11211 11566 11915 0
11566 11570 11915 0
11916 11917 11572 0
11917 10229 11572 0
11573 11916 11572 0
11918 11916 11573 0
11573 11574 11918 0
11577 11223 11211 0
11570 11578 11915 0
11915 11919 11211 0
11920 11919 11915 0
11578 11582 11920 0
11915 11578 11920 0
11575 11921 11581 0
11577 11921 11575 0
11211 11921 11577 0
11590 11921 11211 0
11583 11590 11919 0
11919 11590 11211 0
11584 11583 11919 0
11920 11584 11919 0
11582 11584 11920 0
10915 11922 11585 0
10916 11923 10915 0
10915 11923 11922 0
11923 10916 10906 0
11581 11921 11586 0
11587 11586 11921 0
11589 11587 11921 0
11590 11589 11921 0
11585 11924 10594 0
11925 11926 11574 0
11591 11925 11574 0
11927 11596 11595 0
11927 11595 10240 0
10240 10596 11927 0
11924 10596 10594 0
11591 11237 11928 0
11596 11929 11599 0
11596 11930 11929 0
11927 11930 11596 0
11237 11601 11928 0
11599 11929 11603 0
11258 11261 11601 0
11931 11261 11263 0
11263 11932 11931 0
11932 11933 11931 0
11934 11933 11932 0
11935 11936 11260 0
11936 11604 11260 0
11937 11606 11605 0
11263 11609 11932 0
10634 11932 11609 0
11934 11932 10634 0
11938 10634 11268 0
11939 11938 11268 0
11268 11940 11941 0
11268 11941 11939 0
11602 11942 11610 0
11942 11943 11610 0
11605 11611 11604 0
11936 11605 11604 0
11935 11605 11936 0
11937 11605 11935 0
11940 11268 11274 0
11269 11610 11943 0
11944 11269 11943 0
11269 11944 11278 0
11945 11276 11272 0
11946 11276 11945 0
11947 11612 11946 0
11946 11612 11276 0
11274 11283 11940 0
10956 11278 11948 0
11949 10654 11618 0
11612 11947 11613 0
11950 10956 11948 0
11281 10956 11950 0
11289 11949 11951 0
11289 11951 11617 0
11617 11951 11952 0
10654 11949 11289 0
11618 11284 11953 0
11613 11954 11614 0
11614 11954 11620 0
11620 11954 11955 0
11281 11956 9996 0
11950 11956 11281 0
11615 11952 11957 0
11616 11615 11957 0
11952 11615 11617 0
11284 11958 11953 0
11284 11619 11958 0
11620 11955 10970 0
11293 10970 11955 0
11621 11627 10007 0
10965 9996 11959 0
9996 11956 11959 0
11622 11960 11623 0
11622 11624 11961 0
11960 11622 11961 0
11624 11962 11961 0
11624 11616 11962 0
11616 11957 11962 0
11619 11625 11963 0
11625 11626 11963 0
11964 11629 11627 0
11964 11631 11629 0
11964 11965 11631 0
11965 11966 11631 0
11967 11961 11962 0
11963 11626 11635 0
11968 11630 11966 0
11630 11631 11966 0
11960 11969 11634 0
11623 11960 11634 0
11961 11970 11960 0
11970 11969 11960 0
11971 11961 11967 0
11970 11961 11971 0
11635 11972 11963 0
11973 11974 11637 0
11973 11637 11636 0
11638 11973 11636 0
11968 11973 11638 0
11630 11968 11638 0
11641 11634 11969 0
11641 11969 11975 0
11975 11969 11970 0
11971 11976 11970 0
11976 11975 11970 0
11971 11977 11976 0
11635 11296 11978 0
11296 11300 11978 0
11979 11980 11643 0
11979 11643 11304 0
11305 11979 11304 0
11974 11979 11305 0
11637 11974 11305 0
11283 11306 11981 0
11645 11641 11975 0
11976 11645 11975 0
11645 11976 11977 0
11300 11980 11978 0
11642 11980 11300 0
11980 11642 11643 0
11650 11981 11306 0
11645 11977 11647 0
11648 11647 11977 0
11648 11982 11649 0
11982 11983 11652 0
11649 11982 11652 0
11984 11983 11982 0
11650 11653 11985 0
11302 11986 11654 0
11986 11987 11654 0
11652 11983 11657 0
11658 11657 11983 0
11984 11658 11983 0
11658 11988 11315 0
11658 11984 11988 0
11653 11659 11985 0
11660 11654 11987 0
11315 11988 11331 0
11988 11989 11331 0
11985 11659 11990 0
11331 11989 11666 0
11663 11990 11664 0
11990 11659 11664 0
11325 11991 11992 0
11333 11325 11992 0
11991 11325 11665 0
11660 11991 11665 0
11661 9401 11993 0
11994 11666 11989 0
11666 11994 11667 0
11995 11996 11663 0
11996 11997 11663 0
11997 11990 11663 0
11998 11669 11992 0
11669 11333 11992 0
11994 11999 11670 0
11667 11994 11670 0
11995 11672 12000 0
11663 11672 11995 0
9401 9406 11993 0
11999 12001 12002 0
12002 12001 12003 0
11670 12002 11673 0
11999 12002 11670 0
12000 11672 11674 0
11342 12004 11677 0
12005 12004 11679 0
12004 11342 11679 0
11678 12005 11679 0
11998 12005 11678 0
11669 11998 11678 0
12003 12006 12007 0
11686 12002 12007 0
12002 12003 12007 0
11673 12002 11686 0
11674 12008 12009 0
11674 11675 12008 0
11683 11684 11677 0
12010 9406 11685 0
9406 11680 11685 0
12007 12006 12011 0
12011 12006 12012 0
11686 12011 11687 0
12007 12011 11686 0
11688 12013 12008 0
11688 12008 11675 0
11688 11683 12014 0
11687 12011 11690 0
11688 12015 12013 0
12014 12015 11688 0
12012 12016 11691 0
12011 12012 11691 0
11690 12011 11691 0
12016 12017 12018 0
11691 12016 12019 0
12019 12016 12018 0
11691 12019 11689 0
12017 12020 12021 0
11692 12019 12018 0
11689 12019 11692 0
12018 12017 12022 0
11692 12022 11694 0
12018 12022 11692 0
12021 12023 12024 0
12017 12021 12025 0
12025 12021 12024 0
11695 12022 12025 0
12022 12017 12025 0
11694 12022 11695 0
12025 12024 12026 0
11695 12026 11696 0
12025 12026 11695 0
11351 11355 11704 0
11697 12026 12027 0
12026 12024 12027 0
11696 12026 11697 0
12028 12029 12030 0
12030 12029 12024 0
12031 12024 12032 0
12027 12024 12033 0
12033 12024 12031 0
11697 12033 11701 0
12027 12033 11697 0
12028 12034 12035 0
12024 12029 12036 0
12032 12024 12036 0
11709 12031 12032 0
11711 12031 11709 0
12033 12031 11711 0
11701 12033 11711 0
12037 12035 12034 0
12038 12037 12034 0
12028 12035 11720 0
11720 12035 12037 0
12029 12028 12039 0
12039 12028 11720 0
11714 12036 12039 0
12036 12029 12039 0
11710 12036 11714 0
12032 12036 11710 0
11709 12032 11710 0
11707 11713 12040 0
11704 11707 12040 0
12038 12041 12042 0
12038 12042 12037 0
12037 12042 11720 0
12039 11720 11715 0
11714 12039 11715 0
11717 12040 11713 0
12043 12042 12041 0
12044 12043 12041 0
11718 12043 11719 0
11718 11720 12043 0
11720 12042 12043 0
11369 11720 11718 0
12045 11717 11712 0
12045 11712 11364 0
12045 11364 12046 0
11724 12047 11725 0
12044 11722 12043 0
12044 12047 11722 0
12047 11724 11722 0
11719 12043 11722 0
12046 11364 12048 0
11725 12049 11383 0
11364 10737 12048 0
12049 11727 11383 0
10738 11382 12050 0
12050 11382 11727 0
10738 12050 11729 0
11716 11731 12051 0
11716 12051 11388 0
10411 11729 12052 0
11731 11732 12051 0
