#!ascii version written be Caret
17949 35894
14353 14355 14352 0
14356 14354 14088 0
14357 14354 14356 0
14089 14090 14096 0
14096 14090 14358 0
14333 12625 14359 0
14098 14360 14350 0
14350 14091 14098 0
14355 14099 14093 0
14087 14095 14361 0
14087 14361 14088 0
14088 14361 14356 0
14095 14096 14362 0
14361 14095 14362 0
14096 14363 14362 0
14358 14363 14096 0
12625 13481 14359 0
14100 14364 14098 0
14098 14364 14360 0
14356 14361 14365 0
14362 14366 14361 0
14366 14365 14361 0
14100 14105 14367 0
14364 14100 14367 0
14106 14103 14368 0
14103 14099 14368 0
14369 14365 14366 0
14097 14370 14104 0
14370 14097 14371 0
14107 14372 13801 0
14367 14105 13801 0
14372 14367 13801 0
13806 14106 14373 0
14373 14106 14374 0
14375 14106 14368 0
14374 14106 14375 0
14370 14376 14104 0
14377 14378 14370 0
14378 14376 14370 0
14377 14379 14378 0
14372 14107 13807 0
13806 14373 14112 0
14380 14112 14374 0
14112 14373 14374 0
14375 14380 14374 0
14104 14376 14113 0
14378 14113 14376 0
14114 14113 14378 0
14379 14114 14378 0
14109 14114 14379 0
14380 14117 14112 0
14120 14121 14381 0
13813 14382 14383 0
13813 14383 14118 0
14118 14383 14124 0
14120 14382 13813 0
14384 14382 14120 0
14381 14384 14120 0
14127 14385 14126 0
14383 14127 14124 0
14385 14127 14383 0
14129 13822 14386 0
14125 14131 14387 0
14388 14131 14130 0
14388 14387 14131 0
14130 14132 14389 0
14388 14130 14389 0
14132 14133 14389 0
13506 14129 14134 0
14129 14390 14134 0
14391 14134 14392 0
14135 14134 14391 0
14393 14394 14395 0
14396 14394 14393 0
14395 14394 14136 0
14394 14397 14136 0
14398 14399 14137 0
14398 14137 14397 0
14397 14137 14136 0
14139 14137 14399 0
14400 14139 14399 0
13846 14139 14400 0
13846 14400 14401 0
14401 14400 14402 0
13847 14401 14402 0
14403 14387 14388 0
14404 14387 14403 0
14389 14405 14388 0
14405 14403 14388 0
14133 13233 14405 0
14389 14133 14405 0
14148 14135 14391 0
14140 14135 14148 0
14396 14393 14155 0
14393 14406 14155 0
14138 14406 14395 0
14395 14406 14393 0
14136 14138 14395 0
13847 13846 14401 0
14143 13847 14407 0
14408 14144 13847 0
14144 14407 13847 0
14405 13233 14409 0
14141 14140 14148 0
14410 14154 14150 0
13844 14154 14411 0
14411 14154 14410 0
14155 13844 14411 0
14406 14142 14155 0
14138 14142 14406 0
14144 14143 14407 0
14144 14412 14145 0
14153 14151 14150 0
14154 14153 14150 0
14145 14412 14156 0
14409 13233 14162 0
14156 14413 14158 0
13540 14158 14414 0
14158 14413 14414 0
13540 14415 13858 0
14414 14415 13540 0
13860 14416 14164 0
14415 13860 13858 0
14416 13860 14415 0
14166 14417 14167 0
14418 14419 14420 0
14167 14420 14168 0
14418 14421 14422 0
14418 14422 14419 0
14419 14422 14423 0
14424 14419 14423 0
13869 14420 14424 0
14420 14419 14424 0
13870 14420 13869 0
14168 14420 13870 0
13566 14422 14421 0
14171 14423 14425 0
14423 14422 14425 0
14174 14423 14171 0
14424 14423 14174 0
13869 14424 14174 0
13877 14426 14427 0
13877 14427 14179 0
13566 14426 13877 0
14422 13566 14172 0
14425 14422 14172 0
14171 14425 14172 0
14178 14177 14428 0
14162 12714 14429 0
14178 14430 13564 0
14178 14428 14430 0
14431 13564 14430 0
13564 14431 14181 0
14181 14183 13889 0
14181 14431 14183 0
14431 14432 14183 0
14433 14182 14432 0
14432 14182 14183 0
14182 14433 13288 0
14433 14185 13288 0
14433 14434 14185 0
14185 14434 14184 0
14434 14435 14184 0
14184 14435 14436 0
14186 14184 14436 0
14186 14436 14437 0
14187 14437 14438 0
14187 14186 14437 0
14187 14439 13894 0
14440 14439 14187 0
13894 14439 14188 0
14187 14438 14441 0
14440 14187 14441 0
14439 14440 14442 0
14442 14440 14443 0
14188 14439 14444 0
14188 14444 14191 0
14442 14445 14439 0
14444 14439 14445 0
14444 14445 14446 0
14191 14444 13900 0
14444 14197 13900 0
14197 14447 13900 0
13900 14447 14196 0
14197 14448 14198 0
14197 14444 14448 0
14447 14197 14199 0
14196 14447 14199 0
14444 14446 14449 0
14448 14444 14449 0
14450 14449 14451 0
14448 14449 14450 0
14198 14452 14202 0
14448 14452 14198 0
14452 14448 14450 0
14453 14210 14204 0
14450 14454 14452 0
14202 14452 14455 0
14452 14454 14455 0
14202 14455 14201 0
14204 14214 14456 0
14204 14456 14453 0
14210 14453 14457 0
14457 14453 14456 0
14211 14210 14458 0
14210 14457 14458 0
14215 14218 14213 0
14214 14459 14456 0
14457 14456 14459 0
14457 14460 14461 0
14457 14461 14458 0
14211 14461 14216 0
14458 14461 14211 0
14218 14215 14462 0
14462 14215 14463 0
14459 14220 14464 0
14214 14220 14459 0
14460 14216 14461 0
14460 14217 14216 0
13917 14221 14465 0
14462 14466 14218 0
14218 14467 14219 0
14218 14466 14467 0
14219 14467 14220 0
14467 14468 14220 0
14468 14464 14220 0
14469 14217 14460 0
14217 14469 14222 0
14465 14221 14470 0
14468 14467 14471 0
14464 14468 14472 0
14472 14468 14471 0
14473 14470 14221 0
14473 14221 14223 0
14474 14472 14471 0
14222 14469 13921 0
14475 13922 13921 0
14476 13922 14475 0
13922 14476 14225 0
14476 14477 14225 0
14477 13599 14225 0
14226 14478 14479 0
14226 14479 12732 0
14227 14478 14226 0
14480 14478 14227 0
13924 14480 14227 0
13924 14228 14480 0
14228 14229 14480 0
14480 14229 14481 0
14482 14483 13599 0
14483 14231 13599 0
14229 13925 14481 0
13309 14484 14481 0
13309 14481 13925 0
14484 13309 14230 0
14235 14485 14237 0
14485 14235 14486 0
14235 14234 14486 0
14486 14234 14238 0
14487 14238 13940 0
14237 14485 14240 0
14488 14485 14486 0
14487 14486 14238 0
14487 13940 14239 0
14487 14239 14241 0
14241 14239 13629 0
14485 14489 14240 0
14246 14489 14485 0
14488 14246 14485 0
13943 14490 14242 0
13944 14491 13943 0
13943 14491 14490 0
14243 14491 13944 0
14240 14489 14245 0
14246 14245 14489 0
14243 14492 14491 0
14492 14243 13945 0
14247 14246 14493 0
14493 14246 14488 0
14494 14488 14495 0
14493 14488 14494 0
14493 14250 14247 0
14493 14494 14250 0
14494 14496 14250 0
13346 14242 14251 0
13945 12543 14492 0
14253 14252 14497 0
14496 14252 14250 0
14497 14252 14496 0
14497 13956 14253 0
14254 14255 14498 0
14499 14254 14498 0
14251 14500 14256 0
14255 14257 14498 0
14498 14257 14501 0
14502 14259 13962 0
14257 13958 14501 0
14501 13958 14503 0
14261 14258 14504 0
14502 14504 13960 0
14504 14258 13960 0
14259 14502 13960 0
13659 14503 13958 0
14261 14505 14262 0
14505 14261 14504 0
14503 13659 14264 0
14506 14267 14507 0
14507 14267 13976 0
14268 14267 14269 0
13985 14269 14273 0
12835 13679 14508 0
14509 14510 13991 0
14508 13679 14510 0
14510 13679 13991 0
13989 13681 14511 0
14275 14512 14277 0
14275 14276 14513 0
14512 14275 14513 0
14273 14513 14276 0
14273 14514 14513 0
14281 14515 14516 0
14516 14509 13683 0
14516 13683 14281 0
13991 13683 14509 0
14511 13681 14517 0
14277 14512 14280 0
14514 14280 14513 0
14280 14512 14513 0
14281 14282 14518 0
13680 14519 14517 0
14517 13681 13680 0
14280 14514 14284 0
14514 14283 14284 0
14520 14521 13995 0
14521 14518 13995 0
14518 14282 13995 0
13680 13385 14519 0
14519 13385 14522 0
14520 13996 13687 0
13995 13996 14520 0
14290 14522 13385 0
14285 14523 13383 0
14520 13687 14286 0
14003 14520 14286 0
12588 14524 13997 0
14525 14526 14527 0
14000 14526 14528 0
14528 14526 14525 0
14529 14000 14528 0
14290 14000 14529 0
14291 13383 14523 0
13997 14524 14530 0
14295 14531 14289 0
14531 14532 14289 0
14533 14527 14288 0
14533 14288 14532 0
14532 14288 14289 0
13696 14288 14527 0
14526 13696 14527 0
14000 13696 14526 0
14534 14003 14297 0
14535 13123 14292 0
14535 14292 14536 0
14530 14292 13997 0
14536 14292 14530 0
13690 14291 14001 0
14535 14537 13123 0
14538 14539 14540 0
14541 14539 14538 0
14295 14538 14540 0
14296 14001 14542 0
14298 14534 14297 0
14543 14534 14298 0
13123 14537 14544 0
13123 14544 13705 0
14012 14541 14538 0
14012 14300 14541 0
14300 14545 14541 0
14295 14012 14538 0
14298 14021 14543 0
14546 14547 14548 0
14549 14546 14548 0
14544 14548 14547 0
13705 14544 14547 0
14299 14550 14300 0
14300 14550 14545 0
14018 14302 14550 0
14018 14550 14299 0
14551 14302 14552 0
13715 14013 14553 0
14554 14013 14296 0
14554 14553 14013 0
14543 14303 14555 0
14543 14021 14303 0
14552 14302 14556 0
14556 14302 14301 0
14557 14552 14556 0
14557 14558 14552 0
14559 14553 14554 0
14303 14559 14555 0
14555 14559 14554 0
14546 14560 14561 0
13705 14547 14561 0
14547 14546 14561 0
14309 14301 14306 0
14556 14301 14309 0
14309 14562 14556 0
14562 14557 14556 0
14563 14557 14562 0
13715 14553 14307 0
14559 14564 14553 0
14564 14307 14553 0
14303 14308 14564 0
14559 14303 14564 0
14311 14310 14307 0
14564 14311 14307 0
14313 14311 14564 0
14308 14313 14564 0
13705 14561 14314 0
14563 14562 14565 0
14562 14319 14566 0
14309 14319 14562 0
14565 14562 14566 0
14317 14567 14046 0
14046 14568 14320 0
14567 14568 14046 0
14566 14319 14569 0
14568 14322 14050 0
14320 14568 14050 0
14319 14321 14569 0
14318 14057 14570 0
14318 14570 14321 0
14321 14570 14569 0
14571 14052 14053 0
14571 14053 14572 0
14572 14323 14573 0
14572 14053 14323 0
14322 14573 14323 0
14057 14574 14570 0
14324 14575 14576 0
14575 14325 14571 0
14575 14324 14325 0
14052 14571 14325 0
14056 14574 14057 0
14327 14577 14578 0
14326 14327 14578 0
14327 14328 14577 0
14576 14328 14324 0
14579 14580 14581 0
14580 14582 14581 0
14330 14583 14331 0
14330 14332 14584 0
14583 14330 14584 0
14332 14333 14584 0
14579 14581 14585 0
14582 14586 14581 0
14586 14585 14581 0
14583 14587 14334 0
14331 14583 14334 0
14584 14588 14583 0
14588 14587 14583 0
14061 14326 14589 0
14061 14589 14335 0
14585 14343 14342 0
14345 14343 14585 0
14586 14345 14585 0
14345 14586 14590 0
14590 14586 14582 0
14591 14590 14582 0
14592 14591 14582 0
14329 14336 14593 0
14593 14336 14594 0
14337 14334 14587 0
14337 14587 14595 0
14588 14595 14587 0
14589 14338 14335 0
14596 14338 14589 0
14080 14079 14597 0
14079 14598 14597 0
14599 14600 14341 0
14599 14341 14597 0
14597 14341 14080 0
14339 14341 14600 0
14345 14590 14347 0
14601 14590 14591 0
14347 14590 14601 0
14594 14336 14348 0
14602 14594 14348 0
14584 14333 14588 0
14338 14596 14349 0
14346 14603 14353 0
14346 14347 14604 0
14603 14346 14604 0
14347 14601 14604 0
14348 14354 14602 0
14337 14595 14090 0
13789 14349 14605 0
14354 14357 14602 0
14090 14595 14358 0
14588 14358 14595 0
14333 14359 14588 0
13789 14606 14097 0
14605 14606 13789 0
14607 14355 14353 0
14603 14607 14353 0
14608 14609 14357 0
14609 14602 14357 0
14588 14363 14358 0
14588 14359 14610 0
14350 14360 14611 0
14360 14364 14611 0
14612 14350 14611 0
14355 14613 14099 0
14614 14609 14608 0
14615 14609 14614 0
14357 14356 14616 0
14357 14616 14608 0
14608 14616 14614 0
14356 14365 14616 0
14362 14363 14366 0
14366 14363 14617 0
14359 13481 14610 0
14610 13481 14618 0
14611 14364 14367 0
14619 14611 14367 0
14099 14620 14368 0
14613 14620 14099 0
14615 14614 14621 0
14614 14616 14621 0
14365 14369 14621 0
14616 14365 14621 0
14617 14622 14366 0
14370 14371 14623 0
14619 14367 14372 0
14368 14620 14375 0
14620 14624 14375 0
14369 14625 14621 0
14369 14366 14622 0
14369 14622 14625 0
14625 14622 14626 0
13481 14108 14618 0
14370 14623 14627 0
14370 14627 14377 0
14379 14377 14372 0
14377 14627 14372 0
14109 14379 14372 0
13807 14109 14372 0
14628 14380 14629 0
14624 14380 14375 0
14629 14380 14624 0
14630 14625 14626 0
14380 14628 14117 0
14628 14631 14117 0
14631 14116 14117 0
14121 14632 14381 0
14381 14632 14633 0
14631 14121 14116 0
14632 14121 14631 0
14634 14383 14382 0
14634 14382 14635 0
14633 14635 14384 0
14635 14382 14384 0
14381 14633 14384 0
13821 14636 14637 0
14126 14638 13821 0
13821 14638 14636 0
14634 14638 14385 0
14638 14126 14385 0
14383 14634 14385 0
14637 13823 13821 0
14122 14125 14639 0
14129 14386 14640 0
14125 14387 14639 0
14641 14129 14640 0
14390 14129 14641 0
14390 14392 14134 0
14390 14641 14392 0
14641 14642 14392 0
14643 14644 14399 0
14644 14645 14399 0
14642 14646 14392 0
14398 14647 14643 0
14399 14398 14643 0
14402 14400 14399 0
14645 14402 14399 0
14402 14645 14648 0
14649 14650 14391 0
14649 14391 14646 0
14646 14391 14392 0
14650 14649 14651 0
14649 14652 14651 0
14653 14654 14396 0
14647 14394 14654 0
14654 14394 14396 0
14397 14394 14647 0
14398 14397 14647 0
14402 14648 13847 0
14655 13847 14648 0
14408 13847 14655 0
14408 14655 14656 0
14655 14657 14656 0
14391 14650 14148 0
14651 14658 14650 0
14658 14148 14650 0
14410 14658 14651 0
14411 14410 14651 0
14652 14411 14651 0
14155 14411 14652 0
14653 14155 14652 0
14396 14155 14653 0
14656 14659 14144 0
14408 14656 14144 0
14657 14659 14656 0
14660 14404 14403 0
14660 14661 14404 0
14403 14405 14662 0
14660 14403 14662 0
14405 14409 14662 0
14658 14150 14148 0
14410 14150 14658 0
14144 14659 14412 0
14412 14659 14657 0
14663 14657 14664 0
14412 14657 14663 0
14412 14665 14156 0
14663 14666 14412 0
14666 14665 14412 0
14663 14667 14666 0
14668 14661 14660 0
14669 14661 14668 0
14662 14668 14660 0
14409 14162 14662 0
14413 14156 14665 0
14413 14665 14670 0
14670 14665 14666 0
14670 14671 14414 0
14413 14670 14414 0
14671 14670 14666 0
14414 14672 14415 0
14414 14671 14672 0
14666 14672 14671 0
14662 14673 14668 0
14662 14162 14673 0
14674 14164 14416 0
14672 14416 14415 0
14674 14675 14165 0
14164 14674 14165 0
14675 14676 14417 0
14165 14417 14166 0
14675 14417 14165 0
14676 14677 14678 0
14167 14417 14678 0
14417 14676 14678 0
14677 14679 14418 0
14420 14677 14418 0
14678 14677 14420 0
14167 14678 14420 0
14680 14427 14426 0
14680 14426 14681 0
14421 14681 14426 0
14679 14681 14421 0
14418 14679 14421 0
14682 14162 14683 0
14421 14426 13566 0
14427 14684 14179 0
14162 14429 14683 0
14177 14684 14428 0
14684 14177 14179 0
14430 14428 14431 0
14429 12714 14685 0
14428 14686 14431 0
14431 14433 14432 0
14433 14687 14434 0
14434 14687 14435 0
14435 14687 14688 0
12714 13289 14689 0
14689 13289 14690 0
14435 14688 14691 0
14435 14691 14436 0
14436 14691 14437 0
14691 14438 14437 0
14692 14438 14691 0
13292 13291 14693 0
13291 13896 14693 0
14690 13289 13292 0
14693 14690 13292 0
14441 14438 14694 0
14694 14438 14692 0
14441 14695 14440 0
14440 14695 14443 0
14190 13896 12996 0
14443 14695 14696 0
14695 14441 14696 0
14443 14697 14442 0
14696 14697 14443 0
14442 14697 14445 0
14694 14698 14441 0
14441 14698 14696 0
14697 14696 14698 0
14445 14697 14699 0
14694 14700 14698 0
14699 14697 14701 0
14701 14697 14698 0
14445 14701 14446 0
14699 14701 14445 0
14446 14701 14702 0
14701 14698 14702 0
14446 14702 14449 0
13005 13917 14703 0
14698 14704 14702 0
14449 14704 14451 0
14702 14704 14449 0
14451 14704 14705 0
14451 14706 14450 0
14703 13917 14707 0
14451 14705 14708 0
14706 14451 14708 0
14450 14706 14454 0
14465 14709 14707 0
14465 14707 13917 0
14454 14710 14455 0
14455 14710 14201 0
14459 14711 14457 0
14457 14711 14460 0
14201 14710 14712 0
14201 14713 14215 0
14712 14713 14201 0
14215 14713 14463 0
14711 14459 14714 0
14460 14711 14715 0
14709 14465 14716 0
14463 14713 14717 0
14463 14718 14462 0
14717 14718 14463 0
14462 14718 14466 0
14464 14472 14459 0
14711 14714 14719 0
14715 14711 14719 0
14460 14715 14469 0
14465 14470 14716 0
14716 14470 14720 0
14466 14718 14721 0
14718 14717 14721 0
14466 14722 14467 0
14721 14722 14466 0
14467 14722 14471 0
14459 14472 14723 0
14723 14714 14459 0
14719 14724 14715 0
14715 14724 14469 0
14473 14720 14470 0
14717 14725 14721 0
14722 14721 14725 0
14471 14722 14726 0
14726 14474 14471 0
14474 14723 14472 0
14474 14727 14723 0
14724 14728 14469 0
14223 14224 14729 0
14473 14223 14729 0
14726 14722 14725 0
14730 14729 14224 0
14730 14224 14731 0
14726 14725 14732 0
14474 14726 14732 0
14733 14727 14734 0
14469 14728 13921 0
14224 12732 14731 0
14731 12732 14735 0
14727 14474 14736 0
14734 14727 14736 0
14475 14728 14737 0
14475 13921 14728 0
14736 14474 14738 0
14738 14474 14732 0
14475 14737 14476 0
14739 14736 14738 0
14476 14737 14477 0
14740 14739 14477 0
14477 14739 14738 0
14737 14740 14477 0
14741 14738 14742 0
14743 14741 14742 0
14744 14738 14741 0
14477 14738 14744 0
12732 14479 14745 0
14743 14746 14744 0
14743 14744 14741 0
14747 14477 14744 0
14745 14479 14478 0
14748 14745 14478 0
14478 14480 14748 0
14749 14750 14744 0
14747 14744 14750 0
13599 14477 14751 0
14747 14750 14749 0
14752 14747 14749 0
14752 14753 14751 0
14752 14751 14747 0
14747 14751 14477 0
14480 14481 14748 0
14754 14751 14753 0
14751 14754 13599 0
13599 14754 14755 0
13599 14755 14482 0
14482 14755 14756 0
14756 14483 14482 0
14757 14483 14756 0
14483 14757 14231 0
14486 14758 14488 0
14758 14486 14487 0
14487 14759 14758 0
14759 14760 14758 0
14241 14759 14487 0
14241 13946 14759 0
14758 14761 14495 0
14488 14758 14495 0
14761 14758 14760 0
14759 13946 14762 0
14761 14763 14495 0
14495 14764 14494 0
14762 13946 14765 0
14496 14494 14764 0
14499 14765 14254 0
14254 14765 13946 0
14766 14251 14767 0
14251 14242 14767 0
14764 14768 14497 0
14496 14764 14497 0
14769 13956 14768 0
14768 13956 14497 0
14500 14251 14766 0
14769 14770 13962 0
13956 14769 13962 0
14770 14502 13962 0
14503 14771 14501 0
14772 14771 14503 0
14770 14504 14502 0
14503 14264 14772 0
14262 14773 14774 0
14775 14773 14505 0
14773 14262 14505 0
14504 14775 14505 0
14774 14263 14262 0
14507 14776 14777 0
14506 14507 14777 0
14507 13976 14776 0
14774 13976 14263 0
13971 14778 13110 0
14264 12835 14508 0
14267 14779 14269 0
14267 14506 14779 0
14780 14508 14509 0
14509 14516 14780 0
14508 14510 14509 0
14518 14781 14281 0
14781 14782 14281 0
14782 14515 14281 0
12588 14783 14784 0
13110 14783 12588 0
14517 14519 14785 0
14786 13377 14283 0
14786 14283 14787 0
14787 14283 14514 0
14520 14518 14521 0
12588 14784 14788 0
14789 14528 14525 0
14785 14290 14529 0
14519 14522 14290 0
14785 14519 14290 0
14285 13377 14786 0
14790 12588 14788 0
14525 14791 14789 0
14285 14792 14523 0
14518 14520 14003 0
14790 14524 12588 0
14793 14533 14794 0
14527 14533 14791 0
14791 14533 14793 0
14525 14527 14791 0
14792 14795 14523 0
14518 14003 14534 0
14536 14530 14790 0
14530 14524 14790 0
14794 14295 14796 0
14794 14531 14295 0
14532 14531 14794 0
14533 14532 14794 0
14523 14795 14291 0
14537 14535 14797 0
14797 14535 14536 0
14540 14539 14798 0
14796 14295 14540 0
14001 14291 14799 0
14291 14795 14799 0
14534 14800 14801 0
14801 14518 14534 0
14544 14537 14802 0
14802 14537 14797 0
14539 14541 14798 0
14798 14541 14545 0
14803 14001 14799 0
14542 14001 14803 0
14804 14800 14543 0
14543 14800 14534 0
14544 14805 14548 0
14803 14806 14542 0
14806 14296 14542 0
14803 14804 14806 0
14807 14546 14549 0
14807 14549 14805 0
14805 14549 14548 0
14808 14550 14809 0
14545 14550 14808 0
14551 14808 14809 0
14806 14810 14296 0
14804 14810 14806 0
14543 14810 14804 0
14550 14302 14809 0
14551 14809 14302 0
14811 14551 14552 0
14812 14811 14552 0
14558 14812 14552 0
14558 14813 14812 0
14814 14813 14558 0
14810 14554 14296 0
14555 14554 14810 0
14543 14555 14810 0
14558 14557 14815 0
14814 14558 14815 0
14546 14816 14560 0
14563 14815 14557 0
14563 14817 14815 0
14817 14814 14815 0
14817 14818 14814 0
14560 14317 14561 0
14816 14317 14560 0
14563 14818 14817 0
14561 14317 14314 0
14565 14818 14563 0
14317 14819 14567 0
14820 14568 14819 0
14819 14568 14567 0
14565 14566 14821 0
14820 14822 14568 0
14566 14569 14821 0
14568 14822 14322 0
14570 14821 14569 0
14573 14823 14572 0
14822 14573 14322 0
14824 14825 14575 0
14824 14575 14571 0
14572 14824 14571 0
14823 14824 14572 0
14826 14827 14828 0
14829 14830 14570 0
14574 14829 14570 0
14575 14825 14576 0
14576 14825 14831 0
14827 14832 14833 0
14832 14834 14833 0
14826 14835 14827 0
14835 14832 14827 0
14835 14836 14837 0
14835 14826 14836 0
14574 14056 14838 0
14839 14578 14577 0
14839 14577 14840 0
14840 14577 14328 0
14831 14328 14576 0
14840 14328 14831 0
14841 14842 14579 0
14843 14580 14842 0
14842 14580 14579 0
14834 14582 14580 0
14832 14582 14834 0
14582 14832 14844 0
14844 14832 14835 0
14056 14329 14845 0
14056 14845 14838 0
14578 14846 14326 0
14839 14846 14578 0
14847 14848 14600 0
14849 14848 14847 0
14848 14339 14600 0
14841 14585 14342 0
14579 14585 14841 0
14582 14850 14592 0
14582 14844 14850 0
14329 14593 14851 0
14326 14852 14589 0
14326 14846 14852 0
14849 14847 14853 0
14847 14599 14853 0
14600 14599 14847 0
14594 14851 14593 0
14589 14854 14596 0
14852 14854 14589 0
14079 14078 14855 0
14853 14598 14856 0
14856 14598 14079 0
14597 14598 14853 0
14599 14597 14853 0
14591 14857 14601 0
14592 14857 14591 0
14594 14602 14858 0
14596 14859 14860 0
14596 14860 14349 0
14854 14859 14596 0
14861 14601 14857 0
14349 14860 14605 0
14862 14351 14350 0
14863 14603 14604 0
14861 14604 14601 0
14863 14604 14861 0
14864 14602 14865 0
14605 14860 14606 0
14350 14612 14862 0
14862 14612 14866 0
14867 14355 14607 0
14603 14868 14607 0
14868 14867 14607 0
14863 14868 14603 0
14602 14609 14865 0
14363 14588 14869 0
14588 14610 14869 0
14097 14606 14371 0
14866 14612 14611 0
14355 14870 14613 0
14867 14870 14355 0
14609 14615 14865 0
14871 14617 14363 0
14869 14872 14363 0
14872 14871 14363 0
14610 14618 14872 0
14869 14610 14872 0
14866 14611 14619 0
14620 14873 14874 0
14873 14620 14613 0
14622 14617 14875 0
14875 14617 14871 0
14872 14876 14871 0
14872 14618 14108 0
14629 14874 14877 0
14629 14624 14874 0
14624 14620 14874 0
14621 14878 14615 0
14875 14879 14626 0
14622 14875 14626 0
14879 14875 14871 0
14876 14879 14871 0
14877 14628 14629 0
14880 14878 14881 0
14621 14625 14882 0
14621 14882 14878 0
14878 14882 14881 0
14882 14625 14630 0
14630 14626 14879 0
14630 14879 14883 0
14883 14879 14884 0
14108 13810 14122 0
14885 14628 14877 0
14630 14886 14882 0
14886 14881 14882 0
14886 14630 14883 0
14884 14886 14883 0
14885 14631 14628 0
14881 14886 14887 0
13822 14888 14889 0
14386 13822 14889 0
13822 13823 14888 0
14386 14889 14640 0
14640 14889 14641 0
14889 14890 14641 0
14890 14642 14641 0
14891 14892 14893 0
14894 14892 14891 0
14893 14644 14643 0
14893 14892 14644 0
14645 14644 14895 0
14646 14642 14896 0
14894 14891 14897 0
14893 14898 14891 0
14898 14897 14891 0
14643 14647 14898 0
14893 14643 14898 0
14655 14899 14900 0
14900 14901 14902 0
14899 14901 14900 0
14901 14903 14902 0
14387 14404 14904 0
14646 14896 14905 0
14646 14905 14649 0
14649 14905 14906 0
14907 14897 14652 0
14907 14652 14906 0
14906 14652 14649 0
14653 14652 14897 0
14654 14653 14897 0
14898 14654 14897 0
14647 14654 14898 0
14657 14655 14900 0
14657 14900 14908 0
14908 14900 14902 0
14909 14902 14903 0
14908 14902 14909 0
14908 14664 14657 0
14908 14909 14664 0
14909 14910 14664 0
14404 14661 14904 0
14911 14663 14910 0
14910 14663 14664 0
14904 14661 14912 0
14667 14663 14911 0
14667 14911 14913 0
14914 14667 14913 0
14661 14669 14912 0
14666 14667 14672 0
14672 14667 14915 0
14916 14915 14667 0
14914 14916 14667 0
14917 14914 14918 0
14916 14914 14917 0
14912 14669 14919 0
14920 14921 14915 0
14921 14672 14915 0
14922 14915 14916 0
14917 14922 14916 0
14672 14923 14416 0
14921 14923 14672 0
14924 14923 14921 0
14920 14924 14921 0
14925 14926 14669 0
14669 14668 14925 0
14927 14928 14676 0
14675 14927 14676 0
14674 14927 14675 0
14929 14926 14925 0
14668 14930 14925 0
14668 14673 14930 0
14931 14932 14928 0
14933 14934 14935 0
14935 14934 14936 0
14936 14934 14937 0
14932 14938 14939 0
14677 14928 14939 0
14928 14932 14939 0
14676 14928 14677 0
14940 14929 14925 0
14933 14941 14942 0
14933 14942 14934 0
14937 14934 14939 0
14939 14934 14942 0
14938 14937 14939 0
14677 14939 14679 0
14681 14942 14941 0
14681 14941 14680 0
14679 14942 14681 0
14939 14942 14679 0
14930 14943 14925 0
14673 14162 14943 0
14930 14673 14943 0
14944 14940 14925 0
14943 14944 14925 0
14162 14682 14943 0
14940 14944 14945 0
14944 14943 14945 0
14682 14945 14943 0
14683 14429 14945 0
14682 14683 14945 0
14684 14946 14428 0
14947 14945 14429 0
14947 14429 14948 0
14949 14428 14946 0
14429 14685 14948 0
14428 14949 14686 0
14950 14951 14952 0
14953 14951 14950 0
14951 14954 14952 0
14952 14955 14950 0
14955 14956 14957 0
14952 14956 14955 0
14431 14958 14433 0
14958 14431 14959 0
14954 14960 14952 0
14960 14956 14952 0
14961 14962 14963 0
12714 14964 14685 0
14433 14958 14687 0
14963 14960 14954 0
14960 14963 14962 0
14961 14960 14962 0
14958 14965 14687 0
14691 14688 14965 0
14965 14688 14687 0
14693 14689 14690 0
14966 14967 14968 0
14693 13896 14967 0
14969 14970 14968 0
14971 14970 14969 0
14190 14969 14967 0
14967 14969 14968 0
13896 14190 14967 0
13588 14971 14969 0
13588 13005 14971 0
14190 13588 14969 0
14972 14698 14700 0
14698 14972 14704 0
14704 14972 14973 0
14704 14973 14705 0
14705 14973 14974 0
14705 14974 14975 0
14708 14705 14975 0
14706 14708 14975 0
14709 14976 14707 0
14454 14706 14975 0
14454 14975 14977 0
14709 14716 14976 0
14710 14454 14977 0
14720 14978 14716 0
14710 14979 14980 0
14710 14980 14712 0
14712 14980 14713 0
14717 14713 14981 0
14713 14980 14981 0
14714 14723 14982 0
14714 14983 14719 0
14982 14983 14714 0
14719 14983 14724 0
14473 14978 14720 0
14984 14978 14473 0
14981 14980 14979 0
14985 14981 14979 0
14725 14985 14986 0
14725 14981 14985 0
14725 14717 14981 0
14723 14727 14982 0
14724 14983 14728 0
14473 14987 14984 0
14987 14473 14988 0
14988 14473 14729 0
14725 14986 14989 0
14727 14733 14982 0
14983 14982 14728 0
14728 14982 14733 0
14730 14988 14729 0
14725 14990 14732 0
14989 14990 14725 0
14734 14728 14733 0
14730 14731 14735 0
14732 14990 14991 0
14728 14736 14992 0
14734 14736 14728 0
14728 14992 14993 0
14728 14993 14737 0
14994 14735 14995 0
14996 14991 14997 0
14732 14991 14996 0
14736 14739 14992 0
14740 14992 14739 0
14993 14992 14740 0
14737 14993 14740 0
14735 12732 14995 0
14995 12732 14998 0
14999 14996 14997 0
15000 14999 14997 0
14732 14996 15001 0
14996 14999 15001 0
14732 15001 14738 0
14999 15000 15002 0
15001 14999 15002 0
15003 15001 15002 0
14742 15001 15003 0
14742 14738 15001 0
12732 14745 14998 0
15003 15004 14742 0
15004 14743 14742 0
14748 14998 14745 0
15004 14746 14743 0
15005 14744 14746 0
14749 14744 15005 0
14749 15005 15006 0
14749 15006 15007 0
14752 14749 15007 0
14752 15007 14753 0
15007 15008 14753 0
15008 14754 14753 0
14754 15008 15009 0
14755 14754 15009 0
14756 14755 15009 0
14756 15009 14757 0
15009 15010 14757 0
15010 14231 14757 0
14231 15010 14230 0
14484 14230 15011 0
15011 14481 14484 0
15012 14759 15013 0
14759 14762 15013 0
14761 14760 14763 0
15012 14760 14759 0
15012 15013 15014 0
15013 14762 15014 0
14763 15015 14495 0
14495 15015 14764 0
15016 15014 14765 0
15014 14762 14765 0
14490 15017 15018 0
14490 15018 14242 0
14242 15018 14767 0
14491 15017 14490 0
14492 15019 14491 0
14768 14764 15020 0
15020 14764 15015 0
14499 15016 14765 0
15018 14766 14767 0
15021 14766 15018 0
15016 14499 15022 0
14766 15021 15023 0
14499 14498 15022 0
14492 12543 15024 0
14770 14769 15025 0
14501 15022 14498 0
14500 14766 15023 0
14500 15026 14256 0
15026 15027 13963 0
14256 15026 13963 0
14775 14504 15028 0
15029 14504 14770 0
15027 14260 13963 0
15028 14773 14775 0
14774 14773 15028 0
15030 14777 14776 0
15030 14776 14774 0
14774 14776 13976 0
15030 15031 14777 0
14779 14506 15032 0
14506 14777 15032 0
14270 13989 15033 0
14779 15034 14269 0
14269 15034 14273 0
15035 15036 14515 0
15036 14508 14780 0
14515 14782 15035 0
15036 14516 14515 0
14780 14516 15036 0
14511 15037 13989 0
15038 14514 14273 0
14518 14782 14781 0
14511 14517 15039 0
15040 14784 14783 0
15040 14783 15041 0
15041 14783 15042 0
15043 14783 13110 0
15042 14783 15043 0
15044 14789 15045 0
15039 15046 15047 0
15046 14789 15047 0
14517 14785 15046 0
14517 15046 15039 0
14787 14514 15038 0
14784 15048 14788 0
15040 15048 14784 0
15044 15045 15049 0
15045 15050 15049 0
14789 15050 15045 0
14529 14528 14789 0
15046 14529 14789 0
14785 14529 15046 0
14786 15051 14285 0
14788 15048 14790 0
15049 14796 15044 0
15049 14793 14796 0
14791 14793 15049 0
15050 14791 15049 0
14789 14791 15050 0
14792 14285 15052 0
14285 15051 15052 0
15053 15054 14518 0
15048 14797 14790 0
14793 14794 14796 0
14795 14792 15055 0
15056 15053 14518 0
14790 14797 14536 0
14540 14798 15057 0
14796 14540 15057 0
14792 15058 15055 0
15059 14792 15052 0
15058 14792 15059 0
15060 14798 15061 0
15055 14803 14799 0
14795 15055 14799 0
15058 14803 15055 0
15062 15058 15059 0
15063 14801 14800 0
15063 15064 14801 0
15064 15056 14801 0
15056 14518 14801 0
15065 15066 15067 0
15068 15065 15067 0
15069 15067 15066 0
15069 15066 14544 0
14802 15069 14544 0
15070 15069 14802 0
14797 15070 14802 0
15071 15061 14545 0
15061 14798 14545 0
15062 14803 15058 0
15063 15072 15062 0
15072 14803 15062 0
14800 14804 15072 0
14800 15072 15063 0
15065 15073 15074 0
14805 15066 15074 0
15066 15065 15074 0
14544 15066 14805 0
14545 14808 15071 0
14808 15075 15071 0
15075 15076 15071 0
15077 15076 14811 0
14811 15076 15075 0
15077 15078 15079 0
15079 15078 15080 0
15072 14804 14803 0
14805 15073 14807 0
15074 15073 14805 0
14808 14551 15075 0
14811 15075 14551 0
15077 14811 14812 0
14813 15077 14812 0
15078 15077 14813 0
14807 15081 14546 0
14813 14814 15078 0
14814 15082 15078 0
15082 15080 15078 0
15083 15080 15082 0
15083 15082 15084 0
14816 15081 15085 0
14546 15081 14816 0
14814 14818 15082 0
14317 15085 15086 0
14317 14816 15085 0
14818 15084 15082 0
15087 15088 15089 0
14819 15086 15089 0
15086 15087 15089 0
14317 15086 14819 0
15088 14822 14820 0
14819 15088 14820 0
15089 15088 14819 0
14565 14821 15090 0
14565 15090 15091 0
14565 15091 15092 0
15093 14573 14822 0
15094 15095 15096 0
15090 14821 15097 0
15098 15091 15090 0
15097 15098 15090 0
15093 15099 14823 0
15099 14824 14823 0
14573 15093 14823 0
15094 15096 15100 0
15096 15101 15100 0
14828 15101 15095 0
15095 15101 15096 0
14826 14828 15095 0
15102 14826 15095 0
14836 14826 15102 0
14836 15102 15103 0
15103 15102 15104 0
15105 15104 15106 0
15103 15104 15105 0
14570 14830 14821 0
15107 15097 14830 0
14830 15097 14821 0
15098 15097 15107 0
15099 14825 14824 0
15108 14825 15099 0
15100 14833 14834 0
14827 14833 15100 0
15101 14827 15100 0
14828 14827 15101 0
14836 15105 15109 0
14836 15103 15105 0
14829 15107 14830 0
15110 14831 15108 0
14831 14825 15108 0
14836 15111 14837 0
14836 15109 15111 0
14829 14574 14838 0
14840 15110 14839 0
14839 15110 15112 0
14831 15110 14840 0
15113 15114 14342 0
15114 14841 14342 0
14843 14842 14841 0
14835 14837 14844 0
14844 14837 15115 0
14845 15116 14838 0
14846 15112 15117 0
15112 14846 14839 0
15118 15119 14849 0
15119 15120 14848 0
15119 14848 14849 0
14339 14848 15120 0
15113 14339 15120 0
14342 14339 15113 0
15115 14850 14844 0
14845 14329 14851 0
14846 15117 14852 0
15117 15121 14852 0
15118 14853 14856 0
14849 14853 15118 0
14851 14594 15122 0
14854 15121 15123 0
15121 14854 14852 0
14078 15124 14855 0
14079 14855 14856 0
15125 14857 14592 0
14594 14858 15126 0
14594 15126 15122 0
14854 15123 14859 0
15127 14084 14351 0
15124 14078 14084 0
15127 15124 14084 0
15125 14861 14857 0
14602 14864 14858 0
14860 14859 14371 0
14351 14862 14866 0
14351 14866 15127 0
14861 15128 14863 0
14865 14858 14864 0
14606 14860 14371 0
15129 14867 15130 0
15130 14868 15128 0
15130 14867 14868 0
14863 15128 14868 0
14873 14613 15131 0
15129 15131 14870 0
15131 14613 14870 0
14867 15129 14870 0
15132 15133 14371 0
15133 14623 14371 0
15133 15134 15135 0
15132 15134 15133 0
15135 14619 14372 0
15135 15134 14619 0
15136 14873 15131 0
14865 14615 15137 0
15137 14615 15138 0
14876 14872 15139 0
14872 14108 15139 0
15133 15140 14623 0
14372 15140 15135 0
15135 15140 15133 0
14874 15141 14877 0
14878 15142 14615 0
15142 15138 14615 0
14879 14876 15143 0
15139 15143 14876 0
14372 14627 14623 0
15140 14372 14623 0
14880 15142 14878 0
14879 15143 14884 0
15139 15144 15143 0
15144 14884 15143 0
14108 14122 15144 0
15139 14108 15144 0
14877 15141 14885 0
15145 15142 14880 0
15146 15142 15145 0
14886 14884 15147 0
15148 15147 14884 0
15144 15148 14884 0
15149 14631 15141 0
15141 14631 14885 0
14880 14881 15150 0
14880 15150 15145 0
15147 15151 14887 0
14886 15147 14887 0
15152 15151 15147 0
15152 15147 15148 0
15144 14122 15153 0
15149 15154 14632 0
15154 14633 14632 0
14631 15149 14632 0
14881 14887 15150 0
14887 15155 15150 0
14887 15151 15155 0
15152 15155 15151 0
15154 14635 14633 0
15145 15150 15156 0
15156 15150 15155 0
15157 14638 14634 0
14122 14639 15153 0
14889 14888 15158 0
15158 14888 13823 0
15158 13823 14637 0
15159 14889 15160 0
14890 14889 15159 0
15161 14890 15159 0
14639 14387 14904 0
14642 15161 15162 0
14642 14890 15161 0
15161 15163 15162 0
14644 14892 15164 0
14644 15164 14895 0
14645 14895 14648 0
14655 14648 15165 0
15165 14899 14655 0
14642 15162 14896 0
15163 14896 15162 0
15166 14897 14907 0
14894 14897 15166 0
14899 15165 15167 0
14901 14899 15168 0
14899 15167 15168 0
15168 14903 14901 0
15169 14903 15168 0
15163 14905 14896 0
14906 14905 15163 0
14907 14906 15163 0
15169 15170 14909 0
15169 14909 14903 0
15170 15171 14910 0
14909 15170 14910 0
15172 15170 15169 0
15172 15173 15170 0
15173 15171 15170 0
14910 15171 14911 0
14913 14911 15171 0
15173 14913 15171 0
14913 15173 15172 0
14913 15172 14914 0
15172 15174 14914 0
14904 14912 15175 0
14918 14914 15174 0
14919 15176 14912 0
15177 15176 14919 0
14915 15178 14920 0
15178 14915 14922 0
15179 14922 14917 0
14669 15177 14919 0
14669 14926 15177 0
14674 15180 14927 0
14927 15180 15181 0
14924 15182 14923 0
14920 15182 14924 0
14920 15183 15182 0
14920 15178 15183 0
14922 15184 15178 0
15184 15183 15178 0
15184 15179 15185 0
15184 14922 15179 0
15177 14926 15186 0
15187 15188 15189 0
15188 15187 15190 0
15190 15187 15191 0
15192 15191 15193 0
14931 15194 15193 0
15194 15192 15193 0
14928 15194 14931 0
15181 15194 14928 0
14927 15181 14928 0
15183 15195 15182 0
15184 15195 15183 0
15196 15195 15184 0
14926 14929 15186 0
15197 15187 15189 0
15198 15197 15189 0
14936 15187 15197 0
15191 15187 14936 0
14938 15191 14936 0
14932 15191 14938 0
15193 15191 14932 0
14931 15193 14932 0
15199 15186 14929 0
15198 14935 15197 0
15198 15200 14935 0
15200 14933 14935 0
14936 15197 14935 0
14938 14936 14937 0
14929 14940 15199 0
15200 14941 14933 0
14941 15201 14680 0
15202 15203 15199 0
15199 14940 15202 0
14427 15201 15204 0
15201 14427 14680 0
15203 15205 15206 0
15203 15202 15205 0
15202 15207 15205 0
15202 14940 15207 0
14940 14945 15207 0
14427 15204 14684 0
15207 15208 15205 0
14945 14947 15207 0
14684 15204 14946 0
14947 15208 15207 0
14946 15204 14949 0
15204 15209 14949 0
15210 15206 15205 0
15211 15206 15210 0
15208 15210 15205 0
14947 15212 15208 0
15213 15212 14947 0
14948 14685 15213 0
14947 14948 15213 0
15214 14949 15209 0
15215 15216 15217 0
15217 14953 14950 0
15217 15216 14953 0
15216 15218 14953 0
15219 15220 14951 0
15219 14951 15218 0
15218 14951 14953 0
14954 14951 15220 0
14949 15214 14686 0
14686 15214 15221 0
15222 15223 15215 0
15217 15224 15215 0
14950 14955 15224 0
15217 14950 15224 0
14954 15220 15225 0
15225 15220 15226 0
15227 15225 15226 0
15213 15228 15212 0
14431 15221 14959 0
14431 14686 15221 0
15229 15222 15215 0
15230 15222 15229 0
15231 15229 15215 0
14955 14957 15231 0
14955 15231 15224 0
15224 15231 15215 0
14963 14954 15225 0
15227 14963 15225 0
14961 14963 15227 0
14961 15227 15232 0
15232 15227 15233 0
15213 14685 14964 0
14959 14965 14958 0
14957 15234 15231 0
15231 15234 15229 0
14957 14956 15235 0
15234 14957 15235 0
14961 15232 15236 0
15237 14965 14959 0
15238 15229 15239 0
15229 15234 15239 0
15235 15239 15234 0
14960 14961 15236 0
14964 12714 14689 0
15240 15239 15235 0
14956 14960 15241 0
14956 15241 15235 0
15235 15241 15240 0
14960 15236 15241 0
15242 15241 15236 0
15243 15244 15245 0
15243 15246 15247 0
15245 15246 15243 0
15246 14693 15247 0
14965 14692 14691 0
14965 15237 14692 0
15248 15239 15240 0
15242 15249 15241 0
15242 15250 15251 0
15252 15244 15243 0
15253 15244 15252 0
14966 15252 15247 0
15247 15252 15243 0
14967 14966 15247 0
14693 14967 15247 0
14689 14693 15254 0
15248 15255 15256 0
15248 15240 15255 0
15240 15241 15255 0
15249 15255 15241 0
15251 15249 15242 0
15257 15251 15250 0
15249 15251 15257 0
14968 15253 15252 0
14968 14970 15253 0
14966 14968 15252 0
14692 15258 14694 0
15249 15256 15255 0
14970 14971 15253 0
14694 15258 15259 0
14971 13005 14703 0
14973 14972 15260 0
14974 14973 15260 0
14974 15260 15261 0
14974 15261 14975 0
14975 15262 14977 0
14976 14716 15263 0
14977 15264 14710 0
15263 14716 14978 0
15265 15263 14978 0
15266 14979 14710 0
14978 14984 15265 0
14979 15266 14985 0
14987 15265 14984 0
14987 14988 14730 0
15267 14989 14986 0
15267 15268 14989 0
15268 14990 14989 0
15269 14987 14730 0
14730 14735 15269 0
15270 14990 15268 0
14990 15270 14991 0
14994 15269 14735 0
14991 15270 15271 0
14995 14998 14994 0
14994 14998 15272 0
15273 15004 15003 0
14998 14748 15272 0
15004 15273 15274 0
15274 14746 15004 0
14746 15274 15005 0
15006 15005 15275 0
15006 15275 15007 0
15276 15010 15009 0
15010 15276 15277 0
14230 15010 15277 0
14230 15277 15011 0
15278 14481 15011 0
15279 14760 15280 0
14760 15012 15280 0
15012 15014 15280 0
14763 14760 15279 0
15280 15281 15279 0
15281 14763 15279 0
15014 15016 15280 0
15017 14491 15019 0
14763 15020 15015 0
14763 15282 15020 0
15282 15283 15020 0
15281 15280 15284 0
15280 15016 15284 0
15021 15285 15286 0
15017 15021 15018 0
15017 15285 15021 0
14492 15287 15019 0
15283 14768 15020 0
15288 14768 15283 0
15284 15016 15022 0
15023 15021 15286 0
15289 15287 15024 0
15287 14492 15024 0
15290 14768 15288 0
15291 15284 15022 0
15024 15292 15289 0
15292 15024 15293 0
14501 15291 15022 0
14501 14771 15291 0
14771 15294 15291 0
15023 15295 14500 0
15024 12543 15293 0
15029 14770 15025 0
15296 15294 14772 0
14772 15294 14771 0
15026 14500 15295 0
15296 14772 15297 0
14504 15029 15028 0
14772 14264 15297 0
12543 14270 15293 0
14270 15298 15293 0
15030 14774 15299 0
15299 14774 15028 0
15031 15030 15300 0
15030 15299 15300 0
15031 15301 14777 0
14777 15301 15032 0
15302 14270 15033 0
15034 14779 15303 0
15301 14779 15032 0
15303 14779 15301 0
15036 15035 15304 0
15035 15305 15304 0
15304 14508 15036 0
14778 15306 13110 0
15033 15037 15302 0
15033 13989 15037 0
15303 14273 15034 0
14782 15054 15305 0
15305 15035 14782 0
13110 15306 15307 0
15302 15037 15308 0
15037 15309 15308 0
15037 14511 15309 0
15303 15038 14273 0
15043 13110 15307 0
15310 15311 15044 0
15047 15311 15312 0
15312 15311 15310 0
15039 15047 15312 0
15308 15039 15312 0
15309 15039 15308 0
14511 15039 15309 0
15038 15313 15314 0
15038 15303 15313 0
15041 15315 15316 0
15040 15041 15316 0
15315 15042 15043 0
15315 15041 15042 0
15311 14789 15044 0
15047 14789 15311 0
14787 15317 14786 0
14787 15038 15314 0
14787 15314 15317 0
15054 14782 14518 0
14797 15048 15316 0
15048 15040 15316 0
15318 15319 15057 0
15051 14786 15317 0
15314 15320 15317 0
15321 15314 15313 0
15320 15314 15321 0
14796 15322 15319 0
15319 15322 15057 0
15044 14796 15319 0
15051 15317 15052 0
15323 15320 15321 0
15323 15324 15325 0
15325 15324 15053 0
15324 15054 15053 0
15057 14798 15326 0
14798 15327 15326 0
15322 14796 15057 0
15320 15323 15317 0
15323 15059 15317 0
15053 15056 15325 0
15328 15060 15329 0
15328 15327 15060 0
15327 14798 15060 0
15052 15317 15059 0
15330 15059 15323 0
15056 15330 15325 0
15325 15330 15323 0
15329 15061 15331 0
15060 15061 15329 0
15332 15328 15329 0
15332 15329 15331 0
15332 15333 15334 0
15335 15332 15334 0
15334 15333 15336 0
15063 15062 15059 0
15064 15063 15059 0
15056 15064 15059 0
15330 15056 15059 0
15337 15065 15068 0
15337 15068 15338 0
15338 15068 15067 0
15061 15071 15331 0
15076 15331 15071 0
15332 15331 15076 0
15076 15077 15332 0
15079 15332 15077 0
15333 15332 15079 0
15065 15337 15073 0
15339 15336 15333 0
15337 15081 14807 0
15073 15337 14807 0
15080 15083 15079 0
15083 15340 15079 0
15340 15333 15079 0
15340 15339 15333 0
15083 15339 15340 0
15337 15341 15081 0
15337 15342 15343 0
15337 15343 15341 0
15341 15343 15344 0
15081 15344 15085 0
15341 15344 15081 0
15084 15339 15083 0
15085 15344 15086 0
15084 14818 15345 0
15339 15084 15345 0
15086 15344 15346 0
15344 15343 15346 0
15343 15342 15087 0
15086 15343 15087 0
15346 15343 15086 0
14565 15092 14818 0
15092 15345 14818 0
15342 14822 15088 0
15087 15342 15088 0
15347 15348 15094 0
15349 15350 15348 0
15351 15350 15349 0
15091 15352 15353 0
15342 15093 14822 0
15354 15355 15356 0
15357 15355 15354 0
15347 15356 15355 0
15094 15356 15347 0
15348 15095 15094 0
15102 15095 15348 0
15104 15102 15348 0
15350 15104 15348 0
15106 15104 15350 0
15106 15350 15351 0
15358 15106 15351 0
15091 15098 15352 0
15352 15098 15359 0
15342 15099 15093 0
15357 15354 15360 0
15354 15361 15360 0
15094 15100 15361 0
15094 15361 15356 0
15356 15361 15354 0
15358 15362 15106 0
15362 15105 15106 0
15363 15358 15364 0
15362 15358 15363 0
15359 15098 15107 0
15365 15359 15107 0
15342 15108 15099 0
15110 15108 15342 0
15366 14843 15367 0
14580 14843 15360 0
15360 14843 15366 0
14834 14580 15360 0
15361 14834 15360 0
15100 14834 15361 0
15368 15105 15362 0
15368 15109 15105 0
15363 15368 15362 0
15107 14829 15365 0
15367 14841 15114 0
14843 14841 15367 0
14829 14838 15369 0
14829 15369 15365 0
15119 15370 15120 0
15113 15120 15114 0
15120 15370 15114 0
15111 15371 14837 0
14837 15371 15115 0
14838 15116 15369 0
15112 15372 15117 0
15119 15118 15373 0
15118 15374 15373 0
15373 15370 15119 0
15371 14850 15115 0
15375 14850 15371 0
15116 14845 14851 0
15376 15117 15372 0
15121 15117 15376 0
15377 15374 15118 0
15125 14592 15378 0
14850 15375 14592 0
14592 15375 15378 0
15121 15379 15123 0
15376 15379 15121 0
14856 14855 15377 0
15377 15118 14856 0
15126 15380 15122 0
14859 15123 15379 0
14861 15125 15128 0
15128 15125 15381 0
14371 14859 15379 0
15130 15128 15382 0
15382 15128 15381 0
14865 15383 14858 0
15384 14371 15379 0
15130 15382 15129 0
15129 15382 15385 0
15386 15131 15387 0
15385 15131 15129 0
15387 15131 15385 0
14371 15384 15388 0
14371 15388 15132 0
15134 15132 15388 0
14619 15134 15389 0
15134 15388 15389 0
15390 14866 14619 0
15389 15390 14619 0
15391 14874 14873 0
15391 14873 15392 0
15392 15136 15386 0
15392 14873 15136 0
15131 15386 15136 0
15137 15138 15393 0
15391 15394 15141 0
14874 15391 15141 0
15138 15142 15395 0
15395 15142 15396 0
15397 15398 15141 0
15142 15146 15396 0
15398 15399 15141 0
15399 15149 15141 0
15400 15401 15146 0
15401 15396 15146 0
15402 15148 15403 0
15148 15144 15403 0
15144 15153 15403 0
15399 15154 15149 0
15404 15154 15399 0
15405 15401 15400 0
15406 15401 15405 0
15146 15145 15407 0
15146 15407 15400 0
15400 15407 15405 0
15155 15152 15408 0
15152 15148 15402 0
15152 15402 15408 0
15403 15408 15402 0
14634 14635 15157 0
15404 14635 15154 0
15406 15405 15409 0
15405 15407 15409 0
15145 15156 15407 0
15403 15410 15408 0
15403 15153 15410 0
14637 14636 15411 0
14638 15412 14636 0
15412 14638 15157 0
15407 15413 15409 0
15156 15414 15413 0
15407 15156 15413 0
15155 15415 15414 0
15156 15155 15414 0
15408 15410 15155 0
15410 15415 15155 0
15158 15416 14889 0
15158 14637 15416 0
14637 15411 15416 0
15413 15417 15409 0
15414 15418 15413 0
15418 15414 15415 0
15410 15418 15415 0
15153 14639 15410 0
15160 14889 15416 0
15417 15413 15419 0
15418 15419 15413 0
15410 15420 15418 0
15418 15421 15419 0
15421 15422 15419 0
15421 15418 15420 0
15410 14639 15423 0
15422 15421 15424 0
15425 15426 14895 0
14639 14904 15423 0
15163 15161 15427 0
15427 15161 15159 0
15428 15427 15159 0
14894 15166 15429 0
14892 14894 15429 0
15430 15425 15164 0
15430 15164 15429 0
15429 15164 14892 0
14895 15164 15425 0
14895 15426 15431 0
14648 14895 15431 0
14648 15431 15432 0
15165 14648 15432 0
14907 15163 15427 0
15428 14907 15427 0
15169 15168 15433 0
15423 14904 15434 0
15172 15169 15433 0
15172 15435 15436 0
15436 15174 15172 0
15437 15174 15436 0
15175 15438 14904 0
15439 15438 15175 0
15437 14918 15174 0
15437 15440 14918 0
14912 15439 15175 0
14912 15176 15439 0
15441 14918 15440 0
14917 14918 15441 0
15176 15177 15439 0
15442 15443 15444 0
15443 15445 15444 0
15445 15181 15444 0
15181 15180 15444 0
15179 15441 15185 0
15179 14917 15441 0
15441 15446 15185 0
15443 15447 15448 0
15445 15443 15449 0
15449 15443 15448 0
15192 15445 15449 0
15194 15445 15192 0
15181 15445 15194 0
15180 15450 15444 0
15180 14674 15450 0
14674 15451 15450 0
14416 15451 14674 0
14923 15451 14416 0
15452 15451 15182 0
15182 15451 14923 0
15185 15453 15184 0
15453 15185 15454 0
15455 15185 15446 0
15454 15185 15455 0
15177 15186 15456 0
15188 15457 15458 0
15189 15188 15458 0
15447 15190 15448 0
15447 15457 15190 0
15457 15188 15190 0
15191 15448 15190 0
15449 15448 15191 0
15192 15449 15191 0
15182 15459 15452 0
15182 15195 15459 0
15195 15460 15459 0
15196 15460 15195 0
15184 15453 15461 0
15454 15461 15453 0
15462 15461 15454 0
15455 15462 15454 0
15456 15186 15463 0
15189 15458 15198 0
15463 15186 15199 0
15464 15463 15199 0
15465 15200 15198 0
15465 14941 15200 0
15199 15203 15464 0
14941 15466 15201 0
15201 15467 15204 0
15468 15204 15467 0
15469 15204 15468 0
15470 15471 15472 0
15469 15473 15204 0
15474 15475 15476 0
15471 15477 15472 0
15478 15477 15471 0
15479 15471 15480 0
15478 15471 15479 0
15481 15206 15211 0
15473 15482 15209 0
15204 15473 15209 0
15469 15483 15473 0
15483 15482 15473 0
15475 15219 15476 0
15219 15484 15476 0
15472 15219 15475 0
15220 15219 15477 0
15477 15219 15472 0
15226 15220 15477 0
15478 15226 15477 0
15226 15478 15479 0
15209 15482 15214 0
15214 15482 15483 0
15485 15223 15486 0
15484 15215 15223 0
15219 15215 15484 0
15216 15215 15219 0
15218 15216 15219 0
15226 15479 15487 0
15488 15211 15210 0
15488 15489 15211 0
15488 15210 15490 0
15210 15208 15490 0
15208 15212 15490 0
15486 15223 15491 0
15223 15222 15491 0
15226 15487 15227 0
15233 15227 15487 0
15492 15233 15487 0
15233 15492 15493 0
15494 15488 15490 0
15212 15228 15494 0
15490 15212 15494 0
15491 15495 15486 0
15495 15491 15222 0
15495 15222 15496 0
15496 15222 15230 0
15497 15233 15493 0
15232 15233 15497 0
15228 15498 15494 0
15228 15213 15499 0
15498 15228 15499 0
15213 14964 15499 0
15221 15258 14959 0
15500 15496 15230 0
15230 15229 15500 0
15236 15497 15501 0
15236 15232 15497 0
15502 15489 15488 0
15503 15489 15502 0
15494 15498 15488 0
15498 15502 15488 0
14959 15258 15237 0
15238 15500 15229 0
15501 15504 15242 0
15236 15501 15242 0
15505 15501 15497 0
15505 15506 15501 0
15506 15504 15501 0
15254 15502 15498 0
15499 15254 15498 0
14964 14689 15254 0
15499 14964 15254 0
15242 15504 15507 0
15507 15504 15506 0
15508 15506 15505 0
15507 15506 15508 0
15245 15244 15509 0
15503 15502 15246 0
15503 15246 15509 0
15509 15246 15245 0
14693 15246 15502 0
15254 14693 15502 0
15237 15258 14692 0
15239 15510 15238 0
15238 15510 15511 0
15510 15239 15248 0
15507 15250 15242 0
15507 15508 15250 0
15511 15512 15513 0
15511 15510 15512 0
15248 15512 15510 0
15250 15514 15257 0
15256 15249 15515 0
15516 15257 15514 0
15516 15515 15257 0
15516 15517 15515 0
15515 15249 15257 0
15256 15512 15248 0
15515 15512 15256 0
15253 14971 14703 0
15259 14700 14694 0
15515 15518 15512 0
14700 15259 14972 0
15259 15519 14972 0
15515 15520 15518 0
15517 15521 15515 0
15521 15517 15522 0
15515 15523 15520 0
15521 15523 15515 0
15260 14972 15524 0
15525 15523 15521 0
15261 15260 15524 0
15261 15524 14975 0
14977 15262 15264 0
14710 15264 15526 0
14710 15526 15266 0
14985 15266 15527 0
15527 14986 14985 0
15528 14986 15527 0
14986 15528 15267 0
15528 15529 15267 0
15265 14987 15530 0
15267 15529 15531 0
15531 15268 15267 0
14987 15269 15530 0
14994 15530 15269 0
15532 15530 14994 0
15271 15270 15533 0
15271 15533 14991 0
15534 14997 14991 0
15532 14994 15535 0
14997 15534 15000 0
15534 15536 15000 0
15000 15536 15537 0
15002 15000 15537 0
15003 15002 15273 0
15002 15537 15273 0
14994 15272 15535 0
15272 14748 15538 0
15274 15539 15005 0
15005 15539 15275 0
15007 15275 15540 0
15540 15008 15007 0
15008 15540 15541 0
15009 15008 15541 0
14748 14481 15538 0
15276 15009 15541 0
15276 15541 15542 0
15011 15538 15278 0
15278 15538 14481 0
15276 15542 15277 0
15011 15277 15542 0
15283 15282 15543 0
15544 15283 15543 0
15282 14763 15545 0
15543 15282 15545 0
14763 15281 15545 0
15281 15284 15545 0
15017 15546 15285 0
15019 15546 15017 0
15544 15288 15283 0
15544 15547 15288 0
15543 15545 15548 0
15019 15549 15546 0
15549 15019 15287 0
15549 15287 15289 0
15547 15290 15288 0
15284 15291 15545 0
15295 15023 15286 0
15292 15549 15289 0
14769 15550 15551 0
15025 14769 15551 0
