#!ascii version written be Caret
17949 32702
8903 8442 9151 0
9152 8901 9144 0
8905 9153 8437 0
8905 8906 9154 0
9153 8905 9154 0
8906 9155 9154 0
8906 8902 9155 0
9156 9157 8907 0
9151 8442 9157 0
9157 8442 8907 0
8652 8901 9152 0
8653 8440 9148 0
9156 7524 9158 0
8907 7524 9156 0
8655 8652 9159 0
9153 9160 8242 0
8437 9153 8242 0
9154 9161 9153 0
9161 9160 9153 0
9162 9154 9155 0
9161 9154 9162 0
8655 9159 8909 0
8909 9159 9163 0
8658 8242 9160 0
8658 9160 9164 0
9161 9164 9160 0
9165 9161 9162 0
9164 9166 8658 0
9161 9165 9164 0
9165 9166 9164 0
8909 9163 8910 0
9167 8910 9168 0
8910 9163 9168 0
9169 9167 9168 0
8658 9166 8911 0
9165 8256 9166 0
8915 8256 9165 0
8912 8910 9167 0
8911 9166 8913 0
8914 8913 9166 0
8256 8914 9166 0
8917 9170 8916 0
8920 8917 8664 0
8921 9171 8920 0
8923 9171 8921 0
8912 9172 9173 0
8912 9173 8918 0
9170 9174 9175 0
9170 9175 8919 0
8916 9170 8919 0
9176 9177 8923 0
9178 9177 9176 0
9179 8922 9180 0
9173 8922 8918 0
9180 8922 9173 0
9174 9181 9175 0
9175 9181 9182 0
8919 9182 8667 0
9175 9182 8919 0
8923 8924 9176 0
8925 9176 8924 0
9178 9176 8925 0
8926 9178 8925 0
9179 9178 8926 0
8922 9179 8926 0
8930 9181 9174 0
8927 9182 8930 0
9182 9181 8930 0
8667 9182 8927 0
8930 9183 8929 0
8929 9183 9184 0
9183 9185 9184 0
8929 9184 8933 0
9185 8943 8942 0
8935 9185 8942 0
9184 9185 8935 0
8933 9184 8935 0
8940 9186 8938 0
8943 8938 9187 0
9187 8938 9186 0
8943 9187 8941 0
8939 9188 8945 0
8940 8948 9186 0
8686 9186 8948 0
9187 9186 8686 0
8941 9187 8686 0
8950 9189 8465 0
8465 9189 8470 0
8470 9189 8692 0
9191 9192 8966 0
9193 9192 9191 0
9192 9194 8966 0
9194 9195 8954 0
9196 9197 8952 0
9196 8952 9195 0
9195 8952 8954 0
8952 9198 8953 0
8952 9197 9198 0
8692 9189 8959 0
9193 9191 9200 0
8965 9200 9191 0
8966 8965 9191 0
9194 8697 8966 0
8954 8697 9194 0
8956 8953 9198 0
9201 9202 8959 0
9201 9203 9202 0
9202 9203 9204 0
9204 9203 8960 0
8961 8960 9205 0
8960 9203 9205 0
9206 9200 8961 0
9206 8961 9205 0
8964 8961 9200 0
8965 8964 9200 0
8956 9207 8701 0
8959 9202 8967 0
9208 9209 9202 0
8701 9207 8704 0
9207 9210 8704 0
9202 9209 8967 0
8712 9208 9204 0
9204 9208 9202 0
8960 8712 9204 0
8704 9210 8479 0
9210 9211 8479 0
8967 9209 8974 0
8712 8974 9209 0
9208 8712 9209 0
9211 8711 8479 0
8711 9213 8719 0
8719 9213 8976 0
9213 9214 8976 0
8721 9214 9215 0
9214 8721 8976 0
8721 9215 8722 0
8723 9216 8495 0
9217 9218 9219 0
9220 9218 9221 0
8977 9222 8725 0
9222 8726 8725 0
9223 8726 9222 0
9226 9218 9220 0
9219 9218 9227 0
9227 9218 9226 0
8726 9223 8979 0
8980 9232 8499 0
8985 8984 9232 0
9232 8984 8499 0
9238 9239 9240 0
9244 9245 9239 0
9240 9239 8991 0
8991 9239 9245 0
8989 9245 9244 0
8989 9244 8990 0
8739 9245 8989 0
8991 9245 8739 0
8991 8992 9247 0
9248 8503 8735 0
9248 8735 8985 0
9248 9249 8503 0
8990 9244 8994 0
9244 9250 8994 0
9251 8992 8996 0
8996 8998 9251 0
8503 9252 8997 0
9252 8999 8997 0
9253 8999 9252 0
8999 9253 8110 0
8110 9253 9003 0
9253 9255 9003 0
9255 9005 9003 0
9256 9005 9255 0
9004 9005 9007 0
9002 9009 9257 0
9007 9257 9009 0
8766 9259 9260 0
9261 9019 9260 0
9019 8766 9260 0
9014 9263 8533 0
9264 9023 9022 0
9259 9023 9265 0
9265 9023 9264 0
9019 9261 9024 0
9024 9261 9266 0
9025 9024 9266 0
8769 8533 9263 0
9263 8771 8769 0
9269 8771 9263 0
9264 9022 9270 0
9029 9266 9271 0
9029 9025 9266 0
8771 9269 8778 0
9269 9272 8778 0
8781 8780 9030 0
9029 9271 8782 0
9032 9031 9273 0
9031 9274 9273 0
8537 9033 9268 0
8778 9272 9275 0
9034 8778 9275 0
9276 9034 9275 0
9036 9277 9037 0
8782 9271 9038 0
9039 9038 9278 0
9274 9031 9039 0
9278 9274 9039 0
9032 9273 9279 0
9040 9032 9279 0
9040 9279 9041 0
9042 9034 9276 0
9043 9042 9276 0
9043 9035 8789 0
9036 9035 9280 0
9277 9036 9280 0
9281 9033 9047 0
9043 9276 9282 0
9035 9043 9282 0
9283 9048 9044 0
9048 9284 9049 0
9283 9284 9048 0
9049 9284 9051 0
9283 9285 9286 0
9284 9283 9287 0
9287 9283 9286 0
9051 9284 9288 0
9284 9287 9288 0
9287 9289 9288 0
9051 9289 9054 0
9288 9289 9051 0
9054 9289 9053 0
9047 9055 9281 0
9290 9291 9289 0
9053 9289 9292 0
9289 9291 9292 0
9053 9293 9052 0
9292 9293 9053 0
9052 9293 9294 0
9052 9294 9055 0
9055 9294 9281 0
9292 9291 9295 0
9295 9296 9297 0
9295 9297 9292 0
9293 9292 9298 0
9298 9292 9297 0
9299 9294 9293 0
9298 9299 9293 0
9298 9297 9296 0
9057 9056 9300 0
9300 9056 9301 0
9056 8800 9301 0
8337 9058 8129 0
9057 9059 8551 0
9057 9302 9059 0
9300 9302 9057 0
8552 8801 9303 0
9304 9303 8803 0
9303 8801 8803 0
9060 9304 8803 0
9060 9305 9304 0
8808 9306 8807 0
8807 9306 9063 0
9307 8808 8804 0
9306 8808 9307 0
9060 9061 9305 0
9305 9061 8809 0
9308 9305 8809 0
8809 9064 9308 0
9308 9064 9309 0
9310 9066 9065 0
9063 9065 9062 0
9310 9065 9063 0
9309 9064 9068 0
9311 9309 9068 0
9074 9312 9313 0
9074 9073 9312 0
9073 9314 9312 0
9313 9315 9316 0
9312 9315 9313 0
9068 9070 9311 0
9311 9070 9317 0
9310 9318 9066 0
9319 9320 8819 0
9320 9071 8819 0
9314 9073 9071 0
9320 9314 9071 0
9074 9313 9075 0
9075 9313 9321 0
9321 9313 9316 0
9070 9322 9317 0
9077 9322 9070 0
8572 9323 9077 0
9324 9323 9079 0
9323 8572 9079 0
8820 9324 9079 0
9325 9324 8820 0
9325 8820 8365 0
9325 8365 9326 0
9066 9318 9080 0
9327 8822 8821 0
9319 8819 8822 0
9319 8822 9328 0
9328 8822 9327 0
9075 9321 9086 0
9326 8365 8583 0
9318 9329 9080 0
9080 9330 8833 0
9329 9330 9080 0
8593 9331 8834 0
9086 9332 9087 0
8383 9333 8376 0
8833 9330 8835 0
9087 9334 9089 0
9332 9334 9087 0
9090 9335 9091 0
8178 9094 9336 0
8178 9336 8845 0
8835 9330 9092 0
9330 9337 9092 0
8598 9338 7945 0
7945 9338 8391 0
9097 9091 9339 0
9339 9091 9335 0
8180 8394 9094 0
9092 9337 9340 0
9095 9092 9340 0
9096 9095 9341 0
9095 9340 9341 0
8598 9096 9341 0
9341 9338 8598 0
9342 9097 9339 0
9342 9343 8859 0
9343 9098 8859 0
9097 9342 8859 0
9343 9099 9098 0
9344 9099 9343 0
9100 8865 9345 0
8866 9346 9104 0
9104 9346 9347 0
9344 8866 9099 0
9346 8866 9344 0
8868 9345 9348 0
8868 9348 9349 0
9100 9345 8868 0
9102 9350 9351 0
9103 9350 9102 0
9347 9103 9104 0
9350 9103 9347 0
9105 9101 8200 0
9352 9106 9353 0
9349 9106 8868 0
9353 9106 9349 0
9354 9108 9355 0
9354 9107 9108 0
9109 9355 9108 0
9352 9355 9109 0
9106 9352 9109 0
8869 9356 8422 0
9356 9110 8422 0
9354 9111 9107 0
9357 9111 9354 0
9114 9110 9356 0
9358 8414 8873 0
9359 8871 8414 0
9357 9112 9111 0
9360 9112 9357 0
9116 9113 9361 0
9358 8873 9117 0
9115 9112 9362 0
9112 9360 9362 0
9116 9361 8877 0
9361 9119 8877 0
9117 8629 9121 0
9363 9115 9362 0
9118 9115 9363 0
9122 9364 9121 0
9121 9364 9365 0
9366 9118 9363 0
9124 9118 9366 0
9125 8887 9367 0
9120 9368 9126 0
9122 9127 9369 0
9364 9122 9369 0
9134 9124 9366 0
9134 9130 9124 0
9367 8887 9370 0
8627 9368 9371 0
9368 8627 9126 0
9372 9143 9373 0
9374 8890 8635 0
8890 9374 9375 0
9376 9369 9127 0
9376 9127 9131 0
9377 9135 9134 0
9378 9135 9377 0
9378 9377 9379 0
9380 9378 9379 0
8887 8888 9370 0
8627 9371 9136 0
9371 9381 9136 0
9372 9373 9382 0
9373 9383 9382 0
9143 9383 9373 0
8890 9375 9137 0
9138 9137 9375 0
9384 9139 9385 0
9384 9376 9139 0
9376 9131 9139 0
9386 9133 9135 0
9135 9378 9387 0
9387 9378 9388 0
9380 9388 9378 0
8888 9149 9370 0
9381 9142 9136 0
9389 9142 9381 0
9382 8640 8646 0
8900 8640 9382 0
9383 8900 9382 0
9143 8900 9383 0
9139 9145 9385 0
9385 9145 9390 0
8894 9391 9145 0
9145 9391 9390 0
8894 9146 9391 0
9147 9386 9146 0
9386 9147 9133 0
9387 9386 9135 0
9388 9386 9387 0
9392 9386 9388 0
9392 9388 9393 0
9388 9380 9393 0
9394 9380 9395 0
9393 9380 9394 0
9150 9142 9396 0
9142 9389 9396 0
9397 9398 9144 0
9149 9148 9399 0
9150 9400 8902 0
9396 9400 9150 0
9398 9152 9144 0
9399 9148 9401 0
8902 9400 9155 0
9402 9156 9158 0
9157 9156 9402 0
9151 9157 9402 0
9401 9148 8440 0
9400 9403 9155 0
9165 9162 9403 0
9403 9162 9155 0
9158 8915 9404 0
9158 7524 8915 0
9404 8915 9165 0
9163 9159 9168 0
9159 9169 9168 0
9159 9405 9169 0
9406 8440 8908 0
9407 9408 9409 0
9410 9407 9409 0
9411 9410 9409 0
9169 9405 9167 0
9412 9170 9408 0
9408 8917 9409 0
9408 9170 8917 0
8920 9409 8917 0
9171 9409 8920 0
9411 9409 9171 0
9171 9413 9411 0
9413 9410 9411 0
9414 9410 9413 0
9414 9415 9416 0
9417 9414 9416 0
8912 9167 9418 0
9412 9419 9170 0
9171 8923 9413 0
9177 9413 8923 0
9414 9413 9177 0
9177 9420 9414 0
9415 9414 9420 0
9421 9416 9415 0
9421 9415 9422 0
9422 9415 9420 0
9422 9173 9172 0
9422 9172 9421 0
8912 9423 9172 0
9423 9421 9172 0
9418 9423 8912 0
9170 9419 9174 0
9177 9178 9420 0
9179 9420 9178 0
9180 9420 9179 0
9422 9420 9180 0
9173 9422 9180 0
9424 9425 9174 0
9419 9424 9174 0
9425 9426 9427 0
9428 9427 9426 0
9429 9428 9426 0
9425 9427 9428 0
9429 9430 9428 0
9174 9425 9431 0
9431 9425 9428 0
8930 9431 9183 0
9174 9431 8930 0
9430 9432 9431 0
9428 9430 9431 0
9433 9434 9432 0
9433 9436 9434 0
9432 9434 9437 0
9431 9432 9437 0
9183 9431 9185 0
9438 9434 9436 0
9188 9438 9436 0
8939 9437 9438 0
9437 9434 9438 0
8938 9437 8939 0
9431 9437 8938 0
8943 9431 8938 0
9185 9431 8943 0
8939 9438 9188 0
8945 9188 8950 0
9188 9189 8950 0
9439 9440 9441 0
9196 9442 9197 0
9198 9441 9443 0
9198 9442 9441 0
9198 9197 9442 0
9442 9439 9441 0
9440 9443 9441 0
9445 9446 9447 0
9448 9446 9445 0
9447 9446 9193 0
9193 9446 9449 0
9192 9193 9449 0
9450 9192 9449 0
9196 9195 9194 0
9198 9443 9451 0
9451 9443 9440 0
9451 9440 9452 0
9201 8959 9453 0
9453 8959 9189 0
9448 9454 9455 0
9448 9445 9454 0
9206 9454 9445 0
9200 9206 9447 0
9447 9206 9445 0
9193 9200 9447 0
9198 9451 8956 0
8956 9452 9456 0
8956 9451 9452 0
9203 9201 9455 0
9201 9457 9455 0
9455 9454 9203 0
9206 9203 9454 0
9205 9203 9206 0
8956 9458 9207 0
8956 9456 9458 0
9459 9207 9458 0
9210 9207 9459 0
9210 9461 9211 0
9459 9461 9210 0
8711 9211 9462 0
9213 8711 9462 0
9213 9463 9214 0
9214 9464 9215 0
9214 9463 9464 0
9465 9215 9464 0
8722 9215 9465 0
8722 8494 7343 0
9465 8494 8722 0
9466 9467 9468 0
9469 9467 9466 0
9470 9469 9466 0
9470 9471 9472 0
9472 9471 9473 0
9470 9466 9473 0
9471 9470 9473 0
8494 9474 8723 0
9475 9466 9468 0
9476 9473 9466 0
9477 9473 9476 0
9478 9473 9477 0
9466 9479 9476 0
9480 9477 9476 0
9481 9476 9479 0
9217 9476 9482 0
9480 9476 9483 0
9482 9476 9481 0
9484 9476 9217 0
9484 9483 9476 0
9216 9485 8495 0
8495 9485 8496 0
9485 9486 8496 0
9218 9482 9481 0
9218 9481 9221 0
9217 9482 9218 0
9219 9487 9217 0
9487 9484 9217 0
9487 9488 9484 0
9486 8977 8496 0
9219 9488 9487 0
8977 9489 9222 0
9489 8977 9490 0
9489 9223 9222 0
9227 9488 9219 0
9495 9226 9220 0
9495 9220 9496 0
9495 9497 9226 0
9226 9497 9227 0
9488 9227 9497 0
8979 9498 8310 0
9498 8980 8310 0
9501 9495 9496 0
9502 8980 9503 0
9232 8980 9502 0
9506 9495 9501 0
9497 9495 9506 0
9507 9497 9506 0
9238 9497 9507 0
9508 9497 9238 0
9509 9508 9247 0
9247 9508 9238 0
9232 9502 8985 0
9501 9510 9511 0
9501 9511 9506 0
9507 9506 9511 0
9238 9507 9239 0
9247 9238 9240 0
9502 9512 8985 0
9513 9511 9510 0
9514 9513 9510 0
9507 9511 9513 0
9239 9507 9244 0
9240 8991 9247 0
8985 9512 9248 0
9512 9515 9248 0
9514 9517 9518 0
9514 9518 9513 0
9513 9518 9507 0
9507 9518 9244 0
8992 9509 9247 0
9251 9509 8992 0
9515 9249 9248 0
9519 9249 9515 0
9249 9519 8503 0
9519 9520 8503 0
9521 9518 9517 0
9244 9521 9250 0
9518 9521 9244 0
9251 8998 9522 0
8998 9523 9522 0
9523 9524 9522 0
9523 9525 9524 0
9520 9252 8503 0
9520 9526 9252 0
9521 9527 9250 0
9527 8994 9250 0
8998 9525 9523 0
9252 9526 9253 0
9000 8994 9527 0
8998 9002 9528 0
9529 9255 9530 0
9255 9253 9530 0
9257 9528 9002 0
9531 9528 9007 0
9007 9528 9257 0
9007 9005 9531 0
9531 9005 9532 0
9529 9532 9256 0
9532 9005 9256 0
9255 9529 9256 0
9533 8514 8513 0
9534 8514 9533 0
8514 9534 8521 0
9534 9535 8521 0
8521 9535 9537 0
9013 8521 9537 0
9014 9013 9538 0
9013 9537 9538 0
9259 9261 9260 0
9014 9541 9263 0
9264 9542 9265 0
9261 9259 9265 0
9266 9261 9543 0
9541 9269 9263 0
9270 9547 9548 0
9542 9264 9270 0
9548 9542 9270 0
9266 9543 9549 0
9271 9266 9549 0
9269 9541 9272 0
9038 9271 9551 0
9271 9549 9551 0
9278 9038 9551 0
9274 9278 9552 0
9552 9278 9551 0
9273 9274 9552 0
9553 9273 9552 0
9273 9553 9279 0
9268 9033 9550 0
9554 9276 9275 0
9276 9554 9555 0
9282 9276 9555 0
9282 9555 9556 0
9035 9282 9556 0
9285 9283 9044 0
9285 9044 9557 0
9285 9558 9286 0
9286 9559 9287 0
9558 9559 9286 0
9287 9559 9289 0
9560 9285 9557 0
9561 9560 9557 0
9558 9285 9560 0
9559 9558 9562 0
9562 9558 9560 0
9289 9562 9290 0
9559 9562 9289 0
9291 9290 9562 0
9281 9294 9563 0
9291 9564 9295 0
9295 9564 9296 0
9294 9299 9563 0
9565 9566 9564 0
9564 9566 9296 0
9296 9567 9298 0
9298 9567 9563 0
9298 9563 9299 0
9567 9296 9566 0
9567 9566 9568 0
9569 9567 9568 0
9570 9563 9567 0
9569 9570 9567 0
9569 9568 9571 0
8800 9572 9573 0
8800 7401 9572 0
8336 9574 7401 0
9574 8336 8552 0
9575 9574 8552 0
9576 8129 9058 0
9058 9059 9576 0
9301 9577 9300 0
8800 9577 9301 0
9578 9577 8800 0
8552 9303 9575 0
9303 9304 9575 0
9579 9307 8804 0
9304 9305 9575 0
9307 9580 9306 0
9579 9580 9307 0
9306 9581 9063 0
9582 9581 9306 0
9580 9582 9306 0
9308 9583 9305 0
9305 9583 9575 0
9581 9584 9063 0
9308 9309 9585 0
9583 9308 9585 0
9063 9586 9310 0
9586 9587 9310 0
9584 9586 9063 0
9311 9588 9309 0
9309 9588 9585 0
9589 9310 9587 0
9316 9315 9590 0
9590 9315 9591 0
9590 9592 9593 0
9591 9592 9590 0
9594 9588 9311 0
9317 9594 9311 0
9324 9325 9595 0
9596 9325 9326 0
9589 9318 9310 0
9597 9318 9589 0
9314 9320 9319 0
9314 9319 9598 0
9312 9314 9598 0
9315 9312 9598 0
9599 9315 9598 0
9590 9321 9316 0
9317 9600 9594 0
9317 9322 9600 0
9322 9077 9600 0
9323 9601 9077 0
9077 9601 9600 0
9595 9323 9324 0
9601 9323 9595 0
9602 9318 9597 0
9321 9590 9086 0
9318 9602 9603 0
9082 9604 9083 0
9327 8821 9083 0
9327 9083 9605 0
9328 9327 9605 0
9606 9328 9605 0
9607 9593 9608 0
9326 8583 9596 0
9329 9318 9609 0
9318 9603 9609 0
9593 9610 9590 0
9610 9086 9590 0
9611 9593 9607 0
9610 9593 9611 0
9330 9329 9612 0
9612 9329 9613 0
9613 9329 9609 0
9614 9086 9610 0
9614 9332 9086 0
9611 9614 9610 0
9615 9613 9609 0
9090 8840 9616 0
9614 9334 9332 0
9612 9617 9330 0
9613 9617 9612 0
9335 9090 9616 0
9618 9336 9094 0
8845 9336 9618 0
9619 8845 9618 0
8390 8845 9619 0
9330 9617 9337 0
9613 9620 9617 0
8391 9338 9621 0
9338 9622 9621 0
9621 9093 8391 0
9616 9623 9339 0
9335 9616 9339 0
9618 9094 8394 0
9337 9617 9340 0
9620 9340 9617 0
9341 9340 9620 0
9622 9341 9620 0
9338 9341 9622 0
9623 9342 9339 0
9623 9343 9342 0
9344 9343 9623 0
9345 9624 9625 0
9348 9345 9625 0
8865 9624 9345 0
9626 9347 9627 0
9628 9627 9346 0
9627 9347 9346 0
9344 9628 9346 0
8190 9101 9629 0
8190 9629 8406 0
9353 9625 9630 0
9353 9349 9625 0
9349 9348 9625 0
9631 8612 9102 0
9631 9102 9351 0
9632 9351 9350 0
9626 9632 9350 0
9347 9626 9350 0
9352 9630 9355 0
9630 9352 9353 0
9631 9633 8612 0
9633 8869 8612 0
9633 9356 8869 0
9105 9359 9634 0
9105 8871 9359 0
9357 9354 9635 0
9636 9114 9356 0
9358 9637 8414 0
9637 9634 8414 0
9634 9359 8414 0
9360 9357 9638 0
9357 9635 9638 0
7961 9125 9639 0
9113 9640 9361 0
9113 9114 9640 0
9637 9358 9641 0
9358 9642 9641 0
9358 9117 9642 0
9362 9360 9638 0
9643 9644 9645 0
9365 9644 9641 0
9641 9644 9643 0
9121 9365 9641 0
9642 9121 9641 0
9117 9121 9642 0
9646 9362 9638 0
9363 9362 9646 0
9125 9370 9639 0
9367 9370 9125 0
9119 9647 9120 0
9119 9361 9647 0
9374 9648 9649 0
9650 9648 9374 0
9651 9645 9652 0
9645 9644 9652 0
9365 9364 9652 0
9644 9365 9652 0
9653 9363 9646 0
9653 9654 9363 0
9654 9366 9363 0
9653 9655 9654 0
9656 9120 9647 0
9368 9120 9656 0
9650 8635 8896 0
9374 8635 9650 0
9375 9374 9649 0
9657 9375 9649 0
9652 9658 9651 0
9652 9364 9369 0
9652 9369 9659 0
9652 9659 9658 0
9377 9134 9366 0
9654 9377 9366 0
9379 9377 9654 0
9655 9379 9654 0
9379 9660 9661 0
9379 9655 9660 0
9661 9662 9663 0
9660 9662 9661 0
9662 9664 9663 0
9368 9665 9371 0
9656 9665 9368 0
9666 9143 9372 0
8896 9143 9666 0
9657 9138 9375 0
9138 9657 9667 0
9369 9376 9659 0
9376 9384 9659 0
9379 9661 9380 0
9380 9661 9668 0
9668 9661 9663 0
9668 9663 9664 0
9371 9669 9381 0
9669 9371 9665 0
9667 9144 9138 0
9667 9670 9144 0
9670 9671 9144 0
9385 9672 9384 0
9673 9672 9385 0
9380 9668 9395 0
9674 9668 9664 0
9395 9668 9674 0
9389 9381 9669 0
9389 9669 9675 0
9676 8904 8903 0
8646 8904 9676 0
9671 9397 9144 0
9671 9677 9397 0
9391 9385 9390 0
9673 9385 9391 0
9673 9391 9678 0
9391 9146 9678 0
9386 9679 9146 0
9146 9679 9678 0
9680 9681 9682 0
9680 9682 9392 0
9392 9682 9386 0
9395 9683 9394 0
9674 9683 9395 0
9370 9149 9684 0
9675 9685 9396 0
9389 9675 9396 0
9669 9686 9675 0
9686 9685 9675 0
9151 9687 9688 0
8903 9151 9688 0
9689 9397 9677 0
9398 9397 9689 0
9690 9681 9680 0
9691 9681 9690 0
9392 9393 9692 0
9392 9692 9680 0
9680 9692 9690 0
9393 9394 9692 0
9399 9693 9149 0
9149 9693 9684 0
9400 9396 9685 0
9400 9685 9694 0
9686 9694 9685 0
9695 9696 9158 0
9158 9696 9402 0
9696 9697 9402 0
9687 9151 9697 0
9697 9151 9402 0
9152 9689 9698 0
9152 9398 9689 0
9699 9693 9399 0
9401 9699 9399 0
9694 9700 9403 0
9400 9694 9403 0
9404 9700 9694 0
9686 9404 9694 0
9695 9404 9686 0
9158 9404 9695 0
9403 9700 9165 0
9404 9165 9700 0
8652 9701 9159 0
9405 9701 9702 0
9159 9701 9405 0
9702 9703 9704 0
9701 9703 9702 0
9703 9705 9704 0
9706 9707 9708 0
9407 9709 9708 0
9709 9706 9708 0
9410 9709 9407 0
9710 9709 9410 0
9711 9710 9410 0
9712 9713 9711 0
9702 9714 9405 0
9715 9714 9704 0
9714 9702 9704 0
9705 9715 9704 0
9406 9401 8440 0
9716 9717 9718 0
9707 9717 9708 0
9708 9717 9716 0
9407 9708 9408 0
9410 9719 9711 0
9719 9712 9711 0
9714 9720 9167 0
9405 9714 9167 0
9721 9714 9715 0
9720 9714 9721 0
9716 9419 9412 0
9408 9716 9412 0
9708 9716 9408 0
9410 9414 9719 0
9417 9719 9414 0
9712 9719 9417 0
9712 9417 9722 0
9417 9416 9722 0
9416 9723 9722 0
9720 9724 9725 0
9720 9725 9418 0
9720 9418 9167 0
9721 9724 9720 0
9726 9727 9424 0
9419 9726 9424 0
9416 9421 9723 0
9728 9723 9421 0
9423 9728 9421 0
9725 9728 9423 0
9418 9725 9423 0
9729 9730 9426 0
9727 9729 9426 0
9727 9426 9425 0
9424 9727 9425 0
9426 9730 9731 0
9732 9432 9733 0
9733 9429 9731 0
9429 9426 9731 0
9733 9432 9430 0
9429 9733 9430 0
9734 9735 9433 0
9432 9734 9433 0
9736 9436 9433 0
9436 9739 9188 0
9741 9742 9743 0
9744 9745 9746 0
9741 9743 9745 0
9747 9189 9188 0
9745 9439 9746 0
9439 9748 9746 0
9749 9750 9751 0
9750 9752 9751 0
9748 9753 9752 0
9439 9753 9748 0
9743 9439 9745 0
9754 9742 9755 0
9756 9448 9757 0
9750 9749 9448 0
9751 9448 9749 0
9450 9448 9751 0
9192 9450 9751 0
9194 9192 9751 0
9752 9194 9751 0
9196 9194 9752 0
9442 9196 9752 0
9753 9442 9752 0
9439 9442 9753 0
9440 9439 9758 0
9758 9439 9743 0
9742 9758 9743 0
9759 9760 9453 0
9189 9759 9453 0
9761 9760 9759 0
9756 9757 9762 0
9757 9448 9762 0
9449 9446 9448 0
9450 9449 9448 0
9440 9758 9452 0
9742 9763 9758 0
9763 9452 9758 0
9763 9742 9754 0
9453 9760 9201 0
9457 9201 9760 0
9457 9760 9765 0
9765 9760 9761 0
9762 9766 9761 0
9766 9765 9761 0
9455 9766 9448 0
9448 9766 9762 0
9767 9452 9763 0
9767 9456 9452 0
9767 9768 9456 0
9754 9767 9763 0
9455 9457 9765 0
9766 9455 9765 0
9458 9456 9769 0
9456 9768 9769 0
9458 9769 9770 0
9458 9770 9459 0
9461 9459 9772 0
9459 9770 9772 0
9211 9461 9462 0
9213 9774 9463 0
9775 9463 9774 0
9464 9463 9775 0
9776 9777 9778 0
9779 9776 9778 0
9780 9777 9776 0
9781 9780 9776 0
9464 9782 9465 0
9775 9782 9464 0
9467 9776 9779 0
9467 9779 9468 0
9469 9776 9467 0
9781 9776 9469 0
9469 9783 9781 0
9780 9781 9783 0
9472 9780 9783 0
8494 9465 9784 0
9465 9782 9784 0
9469 9470 9783 0
9472 9783 9470 0
9785 8494 9784 0
9473 9786 9472 0
9786 9780 9472 0
9787 9780 9786 0
8494 9785 9474 0
9788 9474 9785 0
9787 9786 9789 0
9786 9478 9790 0
9473 9478 9786 0
9790 9789 9786 0
9466 9475 9791 0
9477 9480 9792 0
9477 9793 9478 0
9792 9793 9477 0
9791 9479 9466 0
9792 9483 9795 0
9480 9483 9792 0
9796 9793 9795 0
9795 9793 9792 0
9483 9484 9797 0
9483 9797 9795 0
9795 9797 9798 0
9799 9796 9795 0
9798 9799 9795 0
9485 9216 9486 0
9486 9216 9800 0
9797 9488 9801 0
9484 9488 9797 0
9801 9798 9797 0
9486 9490 8977 0
9486 9800 9490 0
9490 9800 9489 0
9800 9803 9489 0
9488 9807 9801 0
9489 9803 9223 0
9803 9808 9223 0
9810 9807 9488 0
9808 8979 9223 0
9220 9811 9496 0
9497 9810 9488 0
9497 9812 9810 0
9812 9813 9810 0
9814 8979 9815 0
9498 8979 9814 0
9497 9818 9812 0
9818 9813 9812 0
9819 9813 9818 0
9813 9819 9820 0
9498 9503 8980 0
9498 9814 9503 0
9496 9821 9501 0
9497 9508 9818 0
9509 9818 9508 0
9819 9818 9509 0
9509 9820 9819 0
9503 9814 9502 0
9814 9512 9502 0
9509 9823 9820 0
9510 9824 9514 0
9824 9517 9514 0
9509 9251 9823 0
9522 9823 9251 0
9522 9825 9823 0
9825 9826 9823 0
9827 9826 9825 0
9826 9827 9828 0
9524 9825 9522 0
9827 9825 9524 0
9524 9829 9828 0
9524 9828 9827 0
9524 9525 9829 0
8998 9831 9525 0
9831 9829 9525 0
9832 9829 9831 0
9526 9833 9253 0
9527 9521 9834 0
9834 9000 9527 0
9831 9528 9835 0
8998 9528 9831 0
9832 9831 9836 0
9836 9831 9835 0
9253 9833 9530 0
9833 9837 9530 0
9000 9838 8513 0
9528 9839 9835 0
9839 9836 9835 0
9840 9836 9841 0
9841 9836 9839 0
9841 9529 9840 0
9840 9529 9842 0
9837 9529 9530 0
9842 9529 9837 0
9843 9533 9838 0
9838 9533 8513 0
9528 9531 9839 0
9532 9839 9531 0
9841 9839 9532 0
9529 9841 9532 0
9533 9844 9534 0
9533 9843 9844 0
9844 9845 9535 0
9534 9844 9535 0
9846 9847 9844 0
9847 9845 9844 0
9535 9845 9537 0
9538 9537 9845 0
9847 9538 9845 0
9538 9854 9014 0
9538 9847 9854 0
9014 9854 9541 0
9858 9265 9542 0
9543 9261 9859 0
9547 9861 9548 0
9858 9542 9548 0
9858 9548 9862 0
9862 9548 9861 0
9549 9859 9863 0
9549 9543 9859 0
9541 9864 9272 0
9272 9864 9865 0
9866 9861 9547 0
9272 9865 9275 0
9865 9868 9275 0
9869 9551 9549 0
9870 9871 9551 0
9871 9552 9551 0
9553 9552 9872 0
9552 9871 9872 0
9553 9872 9279 0
9550 9033 9867 0
9867 9033 9873 0
9868 9554 9275 0
9874 9554 9868 0
9866 9037 9277 0
9866 9277 9875 0
9875 9277 9280 0
9876 9551 9869 0
9877 9551 9876 0
9878 9551 9877 0
9870 9551 9878 0
9873 9033 9281 0
9555 9554 9879 0
9879 9554 9874 0
9880 9557 9044 0
9281 9563 9881 0
9555 9879 9882 0
9556 9555 9882 0
9883 9556 9882 0
9884 9560 9561 0
9560 9885 9562 0
9884 9885 9560 0
9562 9885 9291 0
9291 9885 9564 0
9886 9887 9884 0
9884 9887 9885 0
9564 9887 9565 0
9885 9887 9564 0
9566 9886 9888 0
9566 9887 9886 0
9566 9565 9887 0
9566 9888 9889 0
9890 9888 9891 0
9892 9890 9891 0
9889 9888 9893 0
9893 9888 9890 0
9566 9893 9568 0
9889 9893 9566 0
9563 9570 9894 0
9571 9568 9893 0
9571 9895 9569 0
9569 9895 9894 0
9569 9894 9570 0
9895 9571 9896 0
9896 9571 9897 0
9898 9894 9895 0
9896 9898 9895 0
9896 9897 9899 0
9900 9896 9899 0
9898 9896 9900 0
7401 9901 9572 0
9572 9901 9902 0
9574 9903 9901 0
9574 9901 7401 0
9302 9904 9059 0
9059 9904 9576 0
9573 9578 8800 0
9573 9905 9578 0
9572 9905 9573 0
9906 9905 9572 0
9574 9907 9903 0
9907 9574 9575 0
9907 9575 9908 0
8339 9909 8802 0
9576 8339 8129 0
9576 9910 8339 0
9910 9909 8339 0
8802 9911 8554 0
9911 8805 8554 0
8804 9912 9579 0
8805 9913 8804 0
9913 9912 8804 0
9908 9575 9914 0
9915 9581 9582 0
9916 9582 9580 0
9915 9582 9916 0
9575 9583 9914 0
9581 9917 9584 0
9917 9918 9584 0
9915 9917 9581 0
9914 9583 9585 0
9919 9914 9585 0
9920 9587 9586 0
9918 9586 9584 0
9920 9586 9918 0
9921 9588 9922 0
9921 9919 9588 0
9919 9585 9588 0
9587 9923 9589 0
9923 9597 9589 0
9920 9923 9587 0
9593 9924 9925 0
9593 9592 9924 0
9592 9591 9924 0
9925 9926 9927 0
9924 9926 9925 0
9588 9594 9922 0
9928 9921 9922 0
9928 9922 9929 0
9929 9922 9594 0
9929 9595 9928 0
9928 9595 9930 0
9595 9325 9930 0
9591 9315 9599 0
9593 9925 9608 0
9931 9608 9927 0
9608 9925 9927 0
9601 9594 9600 0
9929 9594 9601 0
9595 9929 9601 0
9932 9602 9597 0
9319 9933 9598 0
9602 9934 9603 0
9602 9932 9934 0
9083 9604 9605 0
9606 9605 9933 0
9319 9328 9606 0
9319 9606 9933 0
9935 9608 9931 0
9607 9608 9935 0
9936 9603 9934 0
9609 9603 9936 0
9607 9937 9611 0
9935 9937 9607 0
9615 9609 9936 0
9937 9614 9611 0
9334 9614 9937 0
9333 8583 8376 0
9616 8840 9938 0
8840 9939 9938 0
9089 9334 9088 0
8390 9619 9940 0
8165 8390 9940 0
8383 8165 9941 0
8165 9940 9941 0
9941 9333 8383 0
9615 9942 9613 0
9943 9944 9615 0
9944 9942 9615 0
9943 9945 9944 0
9623 9616 9946 0
9946 9616 9938 0
9613 9942 9620 0
9622 9620 9942 0
9944 9622 9942 0
9621 9622 9944 0
9945 9621 9944 0
9093 9621 9945 0
9947 9618 8394 0
9948 9344 9623 0
9628 9344 9949 0
9630 9625 9624 0
9630 9624 9950 0
9951 9351 9632 0
9627 9952 9626 0
9949 9627 9628 0
9952 9627 9949 0
9951 9953 9351 0
9953 9631 9351 0
9954 9101 9105 0
9354 9355 9630 0
9953 9633 9631 0
9955 9633 9953 0
9634 9954 9105 0
9956 9354 9630 0
9955 9356 9633 0
9354 9956 9635 0
9955 9636 9356 0
9634 9637 9957 0
9957 9954 9634 0
9640 9958 9361 0
9958 9640 9636 0
9636 9640 9114 0
9637 9641 9643 0
9635 9959 9638 0
7961 9639 9960 0
9961 9651 9962 0
9961 9963 9651 0
9645 9651 9964 0
9964 9651 9963 0
9962 9965 9966 0
9962 9966 9961 0
9964 9643 9645 0
9653 9646 9959 0
9959 9646 9638 0
9639 9370 9960 0
9361 9958 9647 0
9647 9958 9967 0
9650 9968 9969 0
9648 9650 9969 0
9649 9648 9970 0
9648 9969 9970 0
9651 9971 9962 0
9971 9965 9962 0
9972 9966 9965 0
9972 9965 9971 0
9653 9973 9974 0
9653 9974 9655 0
9655 9974 9975 0
9656 9647 9967 0
9976 9977 9978 0
9979 9977 9976 0
9977 9980 9978 0
9980 9981 9372 0
9982 9983 9666 0
9982 9666 9981 0
9981 9666 9372 0
8896 9666 9983 0
9968 8896 9983 0
9650 8896 9968 0
9649 9970 9657 0
9970 9667 9657 0
9970 9984 9667 0
9984 9985 9667 0
9651 9658 9971 0
9659 9971 9658 0
9972 9971 9659 0
9659 9384 9972 0
9655 9975 9986 0
9655 9986 9660 0
9660 9986 9662 0
9986 9664 9662 0
9987 9664 9986 0
9988 9960 9370 0
9665 9656 9989 0
9979 9976 9990 0
9976 9676 9990 0
8646 9676 9978 0
9978 9676 9976 0
9382 8646 9978 0
9980 9382 9978 0
9372 9382 9980 0
9985 9670 9667 0
9991 9670 9985 0
9992 9384 9672 0
9990 8903 9688 0
9676 8903 9990 0
9670 9991 9671 0
9672 9673 9992 0
9673 9993 9992 0
9993 9994 9992 0
9995 9994 9993 0
9664 9996 9674 0
9673 9678 9993 0
9995 9993 9678 0
9679 9995 9678 0
9997 9995 9679 0
9998 9997 9679 0
9998 9679 9682 0
9679 9386 9682 0
9682 9681 9999 0
9996 9683 9674 0
9684 9988 9370 0
9665 10000 9686 0
9669 9665 9686 0
9989 10000 9665 0
10001 9687 9989 0
9687 10000 9989 0
9688 9687 10001 0
9677 10002 9689 0
10003 9999 9681 0
10003 9681 10004 0
10004 9681 9691 0
9684 9693 10005 0
9686 10000 9695 0
9696 9695 10000 0
9687 9696 10000 0
9697 9696 9687 0
9689 10002 10006 0
9698 9689 10006 0
9152 9698 10007 0
9698 10006 10007 0
9690 10008 9691 0
10008 10004 9691 0
9690 9692 10009 0
9692 10010 10009 0
9692 9394 10010 0
9693 9699 10005 0
9690 10011 10008 0
10009 10011 9690 0
9401 10012 9699 0
9699 10012 10005 0
10013 10014 10015 0
10013 10015 10016 0
9706 10017 10016 0
10017 10013 10016 0
9709 10017 9706 0
9711 10018 9710 0
9713 10018 9711 0
9701 8652 10019 0
9701 10019 9703 0
10019 9705 9703 0
10020 9705 10019 0
10021 9718 10014 0
10022 10021 10014 0
10015 10014 9718 0
10015 9718 9717 0
9707 10015 9717 0
10016 10015 9707 0
9706 10016 9707 0
9712 10018 9713 0
9715 9705 10023 0
9705 10020 10023 0
9718 10021 10024 0
10024 10021 9726 0
9718 10024 9716 0
9712 10025 10018 0
10025 10026 10018 0
10027 10026 10028 0
10028 10026 10025 0
10027 10028 10029 0
9715 10030 10031 0
9715 10031 9721 0
10023 10030 9715 0
10024 9726 9419 0
9716 10024 9419 0
9712 9722 10025 0
9723 10025 9722 0
10028 10025 9723 0
9728 10028 9723 0
10029 10028 9728 0
10029 9728 10032 0
9728 9725 10032 0
9721 10032 9724 0
10032 9725 9724 0
10033 10034 10035 0
10033 9727 10036 0
10034 10033 10036 0
9726 10036 9727 0
9729 10033 10035 0
10037 9729 10035 0
9727 10033 9729 0
9729 10037 10038 0
9729 10038 9730 0
9730 10039 9731 0
10038 10039 9730 0
10040 9432 9732 0
10040 9732 10041 0
10039 10041 9733 0
10041 9732 9733 0
9731 10039 9733 0
9432 10040 10042 0
9432 10042 9734 0
9735 10043 9433 0
10044 10045 10046 0
10047 10045 10044 0
10043 9736 9433 0
9739 9436 9736 0
10046 10049 10044 0
9741 10051 10052 0
10044 9741 10052 0
10049 10053 10054 0
10055 9741 10044 0
10049 10056 10044 0
10056 10055 10044 0
10056 10049 10054 0
10053 10056 10054 0
9739 9747 9188 0
10057 10058 10059 0
9744 10058 10051 0
9741 10060 10051 0
10060 9744 10051 0
9742 9741 10055 0
9755 9742 10055 0
9755 10055 10056 0
10061 10062 10063 0
10057 10059 10062 0
9744 9746 10064 0
9744 10064 10058 0
10060 9745 9744 0
9741 9745 10060 0
9189 10065 10066 0
9189 9747 10065 0
10065 10067 10066 0
10062 9750 10063 0
10059 10068 10062 0
10068 9750 10062 0
10058 10068 10059 0
10064 10068 10058 0
9746 9748 10068 0
10064 9746 10068 0
9189 10066 9759 0
10063 9756 10069 0
10070 9756 10063 0
9750 10070 10063 0
10068 9752 9750 0
9748 9752 10068 0
9754 9755 10071 0
10066 10072 9759 0
10067 10072 10066 0
10073 10072 10067 0
10069 10073 10067 0
9756 10073 10069 0
10070 9448 9756 0
9750 9448 10070 0
9759 10072 9761 0
10073 9761 10072 0
9762 9761 10073 0
9756 9762 10073 0
9767 10075 9768 0
9754 10075 9767 0
10076 9768 10075 0
9769 9768 10076 0
10076 9770 9769 0
9772 9770 10077 0
10077 9461 9772 0
9462 9461 10080 0
10083 9462 10080 0
9213 9462 10083 0
9213 10085 9774 0
9213 10086 10085 0
10083 10086 9213 0
9777 10087 10088 0
9777 10088 9778 0
9780 10087 9777 0
10089 10087 9780 0
10090 10089 9780 0
9774 10091 9775 0
10085 10091 9774 0
9787 10092 9780 0
9787 10093 10092 0
10093 10094 10092 0
9782 9775 10095 0
9775 10091 10095 0
10099 9782 10095 0
9784 9782 10099 0
9785 9784 10099 0
10099 10100 9785 0
10101 10093 9787 0
9785 10100 9788 0
9468 10102 9475 0
9787 9789 10103 0
10103 10101 9787 0
9474 9788 10104 0
9788 10100 10104 0
9789 9790 10105 0
9789 10105 10103 0
10104 10106 9474 0
9790 9478 10105 0
9478 10107 10105 0
9474 10106 8723 0
9478 9793 10109 0
10107 9478 10109 0
8723 10106 9216 0
9791 10110 9479 0
10110 9481 9479 0
9793 9796 10111 0
9796 9799 10111 0
10111 9799 10113 0
9216 10106 9800 0
9798 9801 10115 0
9798 10115 9799 0
9799 10115 10113 0
10106 10116 9800 0
9807 10115 9801 0
10116 9803 9800 0
9221 9811 9220 0
10123 9803 10124 0
9808 9803 10123 0
9807 9810 10126 0
9808 9815 8979 0
9808 10123 9815 0
10123 10127 9815 0
10126 9813 10129 0
9810 9813 10126 0
10130 10126 10129 0
9815 10127 9814 0
9496 9811 9821 0
9820 10129 9813 0
9820 10130 10129 0
10127 9512 9814 0
9821 10133 9501 0
10133 9510 9501 0
10135 9510 10133 0
10136 10130 9820 0
9510 10135 9824 0
9826 9820 9823 0
10136 9820 9826 0
9826 9828 10136 0
9512 9519 9515 0
9512 10137 9519 0
10138 9517 9824 0
9519 10137 9520 0
10137 10139 9520 0
9517 10138 9521 0
10139 9526 9520 0
10141 9526 10139 0
10141 10143 9526 0
9829 9832 10145 0
9832 10146 10145 0
10145 10146 10147 0
10147 9833 10143 0
9833 9526 10143 0
9521 10148 9834 0
10146 9836 10149 0
9832 9836 10146 0
10147 10146 10150 0
10150 10146 10149 0
9833 10150 9837 0
10147 10150 9833 0
9000 9834 9838 0
9834 10151 9838 0
9836 9840 10149 0
9842 10149 9840 0
10150 10149 9842 0
9837 10150 9842 0
9838 10151 10152 0
9843 9838 10152 0
9843 10152 10153 0
9844 10153 9846 0
9844 9843 10153 0
10156 9846 10157 0
9847 9846 9854 0
9854 9846 10156 0
10160 9854 10156 0
10160 10162 9854 0
9858 10163 9265 0
9261 9265 10164 0
9859 9261 10165 0
9261 10164 10165 0
9541 9854 9864 0
10166 9864 10162 0
9864 9854 10162 0
9862 9861 10167 0
10163 9858 9862 0
10167 10163 9862 0
9859 10165 10168 0
9863 9859 10168 0
10169 9863 10168 0
9865 9864 10166 0
9866 10170 10171 0
10171 9861 9866 0
10172 9549 9863 0
10172 9863 10169 0
9549 10172 9869 0
10173 9865 10166 0
9868 9865 10173 0
10174 10170 9866 0
9869 10172 10175 0
9871 10176 10177 0
9870 10176 9871 0
9871 10177 9872 0
9868 10173 9874 0
10174 9875 9280 0
10174 9866 9875 0
9869 10175 10178 0
9869 10178 10179 0
10180 9876 10179 0
9876 9869 10179 0
10180 9877 9876 0
9878 10181 9870 0
9870 10181 10176 0
9041 10182 9044 0
10183 9867 9873 0
9873 9281 10183 0
10184 10183 9881 0
10183 9281 9881 0
9881 10185 10184 0
10185 9881 10186 0
9881 9563 10186 0
9563 10187 10186 0
9886 9884 9561 0
9563 9894 10187 0
10188 9892 9891 0
10189 9890 9892 0
10189 9892 10190 0
10190 9892 10188 0
9890 10191 9893 0
10189 10191 9890 0
9893 10191 9571 0
10192 10189 10190 0
10193 10192 10190 0
10191 10189 10192 0
10192 10194 10195 0
10192 10195 10191 0
9571 10195 9897 0
10191 10195 9571 0
10195 10194 10196 0
9897 10195 10196 0
9897 10196 9899 0
9899 10196 10197 0
9899 10197 9900 0
9902 9901 9903 0
10198 9904 9302 0
9300 10199 9302 0
9302 10199 10198 0
9300 9577 10199 0
9902 9906 9572 0
9902 10200 9906 0
9903 10200 9902 0
9907 10201 9903 0
10201 9907 9908 0
10202 10201 9908 0
9904 9910 9576 0
10203 9910 9904 0
10204 8805 9911 0
9909 9911 8802 0
10205 9911 9909 0
9908 9914 10202 0
10206 9916 9580 0
9579 10207 9580 0
10207 10206 9580 0
9912 10207 9579 0
10208 10207 9912 0
10206 9915 9916 0
10209 9918 9917 0
10210 9917 9915 0
10209 9917 10210 0
10211 9914 9919 0
9919 10212 10211 0
9921 10212 9919 0
9921 10213 10212 0
10214 9597 9923 0
10215 9923 9920 0
10214 9923 10215 0
10216 10217 9591 0
10217 9924 9591 0
9926 9924 10218 0
9924 10217 10218 0
9921 9928 10213 0
9930 10213 9928 0
10219 10213 9930 0
10219 9930 10220 0
9930 9325 10220 0
9325 10221 10220 0
10221 9325 9596 0
10214 10222 9597 0
10216 9591 9599 0
9927 10223 9931 0
10222 9932 9597 0
9931 10223 10224 0
9934 9932 10225 0
9931 10224 9935 0
9936 9934 10225 0
8830 10226 8831 0
10227 9937 9935 0
10226 8830 8379 0
10227 9334 9937 0
10228 9331 8593 0
9938 9939 10229 0
8840 9088 10230 0
9619 9618 10231 0
9618 9947 10231 0
9940 9619 10231 0
10232 9941 9940 0
9333 9941 10232 0
9615 10233 9943 0
9945 9943 10233 0
9093 9945 10234 0
9945 10233 10234 0
10228 8593 9093 0
10234 10228 9093 0
9946 10229 10235 0
9946 10235 10236 0
9938 10229 9946 0
10237 9946 10236 0
10238 9947 8394 0
10237 9623 9946 0
10239 9623 10237 0
10239 9948 9623 0
9344 9948 9949 0
9949 9948 10240 0
10238 8394 8406 0
9626 9952 9632 0
9949 10240 9952 0
8406 9629 10238 0
10241 9953 9951 0
10242 9101 9954 0
10241 9955 9953 0
10243 10242 9954 0
10244 9956 9630 0
10245 9956 10244 0
10246 9955 10241 0
10247 10243 9954 0
9956 10248 9635 0
9956 10245 10248 0
9636 9955 10249 0
9955 10246 10249 0
10250 10251 10252 0
10250 10253 10251 0
10253 10254 10251 0
9643 10254 10255 0
10255 10254 10253 0
9637 9643 10255 0
10247 9637 10255 0
9957 9637 10247 0
9954 9957 10247 0
9959 9635 10248 0
10249 9958 9636 0
10251 10256 10252 0
9964 9963 10257 0
9964 10257 10251 0
9964 10251 10254 0
10251 10257 10256 0
9643 9964 10254 0
9963 10258 10257 0
9961 10258 9963 0
9966 10259 9961 0
9961 10259 10258 0
9653 9959 9973 0
9982 10260 9983 0
10261 10262 9968 0
10261 9968 10260 0
10260 9968 9983 0
9969 9968 10262 0
10263 9969 10262 0
10264 9969 10263 0
10264 10265 9969 0
9969 10265 9970 0
10265 9984 9970 0
10266 9984 10265 0
9966 9972 10259 0
9972 9384 10267 0
9972 10267 10259 0
9975 9974 9973 0
10268 9975 9973 0
9975 10268 9986 0
10268 9987 9986 0
9967 10269 9656 0
10270 10269 9967 0
10270 10271 10272 0
10273 10271 10270 0
10272 10271 9979 0
10271 10274 9979 0
10275 10276 9977 0
10275 9977 10274 0
10274 9977 9979 0
9980 9977 10276 0
10277 9980 10276 0
9981 9980 10277 0
9982 9981 10277 0
10266 9985 9984 0
10266 10278 9985 0
10267 9384 9992 0
9994 10267 9992 0
9960 9988 10279 0
9656 10269 9989 0
10270 10280 10269 0
9990 10280 10272 0
10272 10280 10270 0
9979 9990 10272 0
9985 10278 9991 0
9994 10281 10282 0
10281 10283 10282 0
10284 10283 10281 0
9989 10269 10001 0
10280 10001 10269 0
9688 10001 10280 0
9990 9688 10280 0
9991 10285 9671 0
9994 9995 10281 0
9997 10281 9995 0
10284 10281 9997 0
10284 9997 10286 0
9997 9998 10286 0
10287 10286 9998 0
9664 9987 9996 0
10285 9677 9671 0
10288 9677 10285 0
9682 10287 9998 0
10287 9682 9999 0
10006 10002 10288 0
10288 10002 9677 0
9684 10005 10279 0
9684 10279 9988 0
10006 10289 10290 0
10006 10290 10007 0
10004 10008 10291 0
10003 10004 10291 0
10292 10293 10294 0
10295 10292 10294 0
10008 10011 10296 0
10008 10296 10291 0
10297 10296 10011 0
10297 10011 10298 0
10298 10011 10009 0
10298 10009 10010 0
10299 10279 10005 0
10012 10299 10005 0
10013 10293 10300 0
10293 10292 10300 0
10017 10293 10013 0
10294 10293 10017 0
9709 10294 10017 0
9710 10294 9709 0
10301 9710 10018 0
10302 10301 10018 0
10026 10302 10018 0
10303 10302 10026 0
10026 10304 10303 0
10296 10305 10291 0
10306 10296 10297 0
10305 10296 10306 0
10013 10300 10014 0
10026 10307 10304 0
8652 10308 10019 0
10019 10308 10020 0
10309 10003 10291 0
10310 10003 10309 0
10306 10309 10305 0
10309 10291 10305 0
10311 10021 10022 0
10311 10022 10312 0
10312 10022 10014 0
10026 10313 10307 0
10020 10314 10023 0
10315 10314 10020 0
10309 10316 10310 0
10306 10316 10309 0
10021 10317 9726 0
10311 10317 10021 0
10026 10027 10313 0
10027 10029 10313 0
10029 10318 10313 0
10318 9721 10031 0
10030 10319 10031 0
10031 10319 10318 0
10314 10030 10023 0
10319 10030 10314 0
10317 10320 9726 0
10029 10032 10318 0
9721 10318 10032 0
10034 10320 10321 0
10035 10034 10321 0
10320 10034 10036 0
9726 10320 10036 0
10322 10037 10321 0
10037 10035 10321 0
10037 10322 10038 0
10323 10324 10325 0
10323 10325 10326 0
10327 10328 10326 0
10325 10327 10326 0
10324 10327 10325 0
10329 10327 10324 0
10330 10331 10329 0
10332 10330 10333 0
10331 10330 10332 0
9735 9734 10334 0
10335 10336 10328 0
10327 10335 10328 0
10337 10331 10332 0
9735 10334 10043 0
10337 10327 10331 0
10044 10327 10338 0
10338 10327 10337 0
10047 10044 10338 0
10047 10339 10045 0
10046 10340 10341 0
10046 10045 10340 0
10045 10339 10340 0
10340 10342 10341 0
9736 10043 10343 0
10331 10327 10329 0
10342 10344 10341 0
10342 10345 10344 0
9739 9736 10346 0
9736 10343 10346 0
10347 10336 10335 0
10046 10341 10049 0
10349 9739 10346 0
10335 10350 10347 0
10350 10351 10347 0
10327 10350 10335 0
10044 10052 10327 0
10341 10352 10049 0
10344 10353 10341 0
10353 10352 10341 0
10354 10344 10345 0
10353 10344 10354 0
10357 9739 10349 0
10350 10358 10351 0
10052 10051 10359 0
10327 10052 10359 0
10053 10049 10352 0
10053 10352 10353 0
10354 10360 10353 0
10360 10053 10353 0
10354 10361 10360 0
10350 10061 10358 0
10364 10057 10350 0
10327 10364 10350 0
10051 10364 10359 0
10359 10364 10327 0
10056 10053 10365 0
10360 10365 10053 0
10366 10360 10361 0
10357 10368 9747 0
9739 10357 9747 0
10369 10368 10357 0
10370 10371 10372 0
10350 10373 10061 0
10057 10373 10350 0
10058 10057 10364 0
10051 10058 10364 0
10056 10365 9755 0
10360 10374 10365 0
10375 10360 10366 0
10374 10360 10375 0
10065 9747 10368 0
10065 10368 10369 0
10377 10065 10369 0
10370 10372 10378 0
10371 10063 10372 0
10061 10063 10371 0
10373 10062 10061 0
10057 10062 10373 0
10379 10380 10374 0
10380 10365 10374 0
10375 10379 10374 0
10067 10065 10381 0
10381 10065 10377 0
10382 10381 10377 0
10383 10381 10382 0
10378 10383 10382 0
10063 10383 10372 0
10372 10383 10378 0
9755 10365 10071 0
10383 10067 10381 0
10069 10067 10383 0
10063 10069 10383 0
10380 10384 10365 0
10385 10380 10379 0
10384 10380 10385 0
10386 10071 10384 0
10071 10365 10384 0
10385 10386 10384 0
9754 10071 10386 0
10075 9754 10387 0
10388 10076 10387 0
10076 10075 10387 0
9770 10076 10389 0
10390 10076 10388 0
9770 10389 10077 0
10076 10391 10389 0
10391 10077 10389 0
10392 10076 10390 0
10391 10076 10392 0
10077 10394 9461 0
10396 10397 10398 0
10398 10397 10399 0
10080 9461 10394 0
10399 10397 10402 0
10402 10397 10090 0
10087 10405 10088 0
10406 10405 10089 0
10405 10087 10089 0
10092 10090 9780 0
10094 10090 10092 0
10402 10090 10094 0
10407 10402 10094 0
10407 10399 10402 0
10086 10408 10409 0
10085 10086 10409 0
10083 10410 10086 0
10410 10408 10086 0
10088 10411 9778 0
10091 10085 10412 0
10085 10409 10412 0
9778 10411 9779 0
10094 10093 10407 0
10414 10091 10412 0
10095 10091 10414 0
10099 10095 10414 0
10100 10099 10416 0
10099 10417 10416 0
10418 10099 10414 0
10417 10099 10418 0
9468 10419 10102 0
10416 10420 10100 0
10421 10420 10417 0
10420 10416 10417 0
10418 10421 10417 0
10101 10103 10423 0
10100 10420 10104 0
10424 10420 10421 0
10104 10420 10424 0
10103 10105 10425 0
10103 10425 10426 0
10103 10426 10423 0
10424 10106 10104 0
10105 10107 10425 0
10109 10427 10425 0
10425 10107 10109 0
10428 10106 10429 0
10109 10430 10427 0
9793 10111 10431 0
10109 9793 10431 0
10428 10116 10106 0
10432 10431 10111 0
10113 10432 10111 0
10113 10115 10434 0
10434 10115 9807 0
10116 10124 9803 0
10116 10428 10124 0
10124 10428 10123 0
10428 10439 10123 0
10126 10441 9807 0
10442 10127 10439 0
10439 10127 10123 0
10447 9821 10448 0
10448 9821 9811 0
10130 10449 10126 0
10127 10450 9512 0
10450 10451 10452 0
10447 10454 10133 0
9821 10447 10133 0
10450 10455 9512 0
10452 10455 10450 0
10454 10135 10133 0
10130 10136 10456 0
10136 9828 10456 0
10137 9512 10455 0
10137 10455 10457 0
10457 10455 10452 0
10458 10452 10451 0
10457 10452 10458 0
10135 10454 9824 0
10457 10460 10137 0
10461 10457 10458 0
10460 10457 10461 0
10462 10463 9828 0
10462 10464 10465 0
10460 10466 10465 0
10460 10465 10139 0
10460 10139 10137 0
10139 10465 10464 0
10461 10466 10460 0
10145 9828 9829 0
10145 10462 9828 0
10464 10462 10145 0
10139 10464 10467 0
10139 10467 10141 0
10467 10464 10469 0
10469 10464 10145 0
10141 10469 10143 0
10467 10469 10141 0
9521 10471 10472 0
10148 9521 10472 0
10148 10472 10473 0
10469 10145 10147 0
10143 10469 10147 0
9834 10474 10475 0
9834 10473 10474 0
9834 10148 10473 0
10475 10477 10151 0
9834 10475 10151 0
10478 10477 10475 0
10151 10477 10152 0
10153 10152 10477 0
10478 10153 10477 0
10153 10478 10479 0
10153 10479 9846 0
10157 9846 10479 0
10157 10483 10156 0
10160 10156 10483 0
10162 10160 10491 0
10492 9265 10163 0
9265 10492 10164 0
10162 10494 10166 0
10492 10163 10167 0
10492 10167 10495 0
10495 10167 9861 0
10168 10496 10497 0
10168 10164 10496 0
10168 10165 10164 0
10494 10499 10166 0
10171 10500 10501 0
10170 10500 10171 0
10168 10502 10169 0
10502 10172 10169 0
9867 10503 10498 0
10166 10499 10173 0
10172 10502 10504 0
10175 10172 10504 0
9041 9279 10182 0
10174 9280 10505 0
10506 10178 10175 0
10178 10507 10179 0
10506 10507 10178 0
10179 10507 10180 0
10177 10508 10509 0
10177 10176 10508 0
10176 10181 10508 0
9044 10182 10510 0
10510 9880 9044 0
9867 10183 10503 0
10503 10183 10511 0
10512 9035 9556 0
10505 9280 9035 0
10505 9035 10512 0
10506 10513 10507 0
10507 10513 10180 0
10508 10181 9878 0
10514 10515 10511 0
10514 10511 10184 0
10184 10511 10183 0
10512 9556 9883 0
10516 10515 10514 0
10517 10515 10516 0
10184 10185 10514 0
10514 10185 10516 0
10517 10516 10518 0
10516 10185 10518 0
10185 10186 10518 0
10519 10518 10187 0
10518 10186 10187 0
9888 9886 10520 0
10521 10187 10522 0
9888 10523 9891 0
10520 10523 9888 0
10187 9894 10522 0
10188 9891 10523 0
10188 10524 10190 0
10525 10190 10524 0
10525 10193 10190 0
10526 9894 10527 0
10194 10192 10193 0
10194 10193 10528 0
10528 10193 10525 0
9894 9898 10527 0
10529 10194 10528 0
10194 10530 10196 0
10194 10529 10530 0
10196 10531 10197 0
10530 10531 10196 0
10532 10197 10531 0
10532 10533 10197 0
10533 9900 10197 0
10527 9898 9900 0
10533 10527 9900 0
10534 10535 10529 0
10529 10535 10530 0
10531 10530 10535 0
10536 10535 10534 0
10537 10536 10534 0
10531 10535 10538 0
10538 10535 10536 0
10539 10532 10531 0
10538 10539 10531 0
10536 10537 10540 0
10538 10536 10540 0
10541 10538 10540 0
10539 10538 10541 0
9578 10199 9577 0
9905 10199 9578 0
9906 10199 9905 0
9906 10200 10199 0
10542 9909 9910 0
10203 10543 9910 0
9910 10543 10542 0
10198 10203 9904 0
10198 10544 10203 0
10544 10543 10203 0
10199 10544 10198 0
10545 10544 10199 0
10546 10201 10202 0
10546 10202 10547 0
10542 10205 9909 0
10548 9912 9913 0
10204 9913 8805 0
9911 9913 10204 0
10549 9913 9911 0
10550 10207 10208 0
10548 10208 9912 0
10547 10202 10551 0
10206 10552 9915 0
10552 10210 9915 0
10207 10552 10206 0
10553 10552 10207 0
10550 10553 10207 0
10202 9914 10551 0
10551 9914 10554 0
10210 10555 10209 0
10556 10554 9914 0
10556 9914 10557 0
10557 9914 10211 0
10209 9920 9918 0
10209 10558 9920 0
10558 10215 9920 0
10555 10558 10209 0
10211 10212 10557 0
10213 10557 10212 0
10556 10557 10213 0
10219 10556 10213 0
10216 10218 10217 0
9927 9926 10559 0
9926 10218 10559 0
10219 10220 10560 0
10221 10560 10220 0
10561 10560 10221 0
10561 10221 9596 0
10561 9596 10562 0
10563 10222 10214 0
10564 10222 10563 0
10565 9599 9598 0
10566 10218 10216 0
9932 10222 10567 0
10222 10564 10567 0
10223 10568 10569 0
10224 10223 10569 0
9596 8583 10562 0
10225 9932 10567 0
10224 10569 9935 0
8831 10226 10570 0
9082 8831 10571 0
8831 10570 10571 0
10571 9604 9082 0
8834 9331 8379 0
9936 10572 9615 0
10573 10572 9936 0
10574 10575 10228 0
10575 9331 10228 0
10235 10229 10576 0
10577 9939 10230 0
10230 9939 8840 0
10230 10578 10577 0
10579 10578 10230 0
10579 10230 10580 0
10580 10230 9088 0
9088 10581 10580 0
9088 9334 10581 0
10582 10583 9947 0
10583 10584 9947 0
10585 10586 10231 0
10585 10231 10584 0
10584 10231 9947 0
9940 10231 10586 0
10232 9940 10586 0
9615 10572 10233 0
10573 10233 10572 0
10234 10233 10573 0
10574 10234 10573 0
10228 10234 10574 0
10236 10235 10576 0
10578 10587 10588 0
10577 10578 10588 0
10587 10578 10579 0
10582 9947 10238 0
10237 10576 10589 0
10237 10589 10590 0
10236 10576 10237 0
10587 10591 10588 0
10587 10592 10591 0
10590 10239 10237 0
10593 10239 10590 0
10239 10594 9948 0
10238 10595 10582 0
10594 10596 9948 0
10596 10240 9948 0
9630 9950 10597 0
9950 10598 10597 0
9624 8865 9950 0
9950 8865 10598 0
9632 10599 9951 0
10240 10599 9952 0
10599 9632 9952 0
9629 10600 10601 0
9629 9101 10600 0
9101 10602 10600 0
10238 9629 10601 0
10595 10238 10601 0
10597 10244 9630 0
10603 10241 9951 0
10602 9101 10242 0
10604 10602 10242 0
10241 10603 10605 0
10242 10243 10606 0
10245 10244 10607 0
10244 10608 10607 0
10246 10241 10609 0
10241 10605 10609 0
10253 10250 10610 0
10255 10253 10610 0
10606 10243 10247 0
10248 10245 10607 0
10246 10611 10249 0
10612 10246 10609 0
10611 10246 10612 0
10613 10250 10252 0
10614 10613 10252 0
9959 10248 10607 0
9958 10249 10611 0
9958 10611 10615 0
10252 10616 10614 0
10256 10616 10252 0
10257 10617 10256 0
10256 10617 10616 0
10618 9959 10607 0
10615 10619 9958 0
10611 10620 10615 0
10620 10619 10615 0
10621 10611 10612 0
10620 10611 10621 0
10622 10261 9982 0
10262 10261 10623 0
10624 10625 10263 0
10624 10263 10623 0
10623 10263 10262 0
10264 10263 10626 0
10257 10258 10617 0
10259 10617 10258 0
10627 10617 10259 0
10259 10267 10627 0
9959 10618 10628 0
9959 10628 9973 0
9973 10628 10268 0
10268 10628 10629 0
9960 10279 7961 0
9958 10619 9967 0
10620 10273 10619 0
10273 10620 10621 0
10275 10630 10276 0
10631 10622 10277 0
10631 10277 10630 0
10630 10277 10276 0
9982 10277 10622 0
10261 10260 9982 0
10264 10626 10265 0
10626 10266 10265 0
10626 10632 10266 0
10629 9987 10268 0
10629 10633 9987 0
9967 10619 10270 0
10273 10270 10619 0
10275 10274 10271 0
9994 10282 10634 0
10283 10634 10282 0
10635 10634 10283 0
10283 10636 10637 0
10283 10637 10635 0
10636 10638 10639 0
10637 10636 10639 0
10639 10638 10640 0
10278 10641 9991 0
10284 10636 10283 0
10284 10642 10636 0
10642 10638 10636 0
10643 10640 10638 0
10642 10643 10638 0
10641 10285 9991 0
10284 10286 10642 0
10642 10286 10287 0
10642 10287 10643 0
10643 10287 10644 0
10288 10645 10006 0
10285 10645 10288 0
10285 10641 10645 0
10644 10287 9999 0
10646 10644 9999 0
10006 10645 10289 0
10645 10647 10289 0
9999 10003 10646 0
10646 10003 10648 0
9683 10010 9394 0
10289 10647 10649 0
10290 10289 10649 0
10290 10649 10007 0
10650 10292 10295 0
10650 10295 10651 0
10651 10295 10652 0
10653 10652 10294 0
10652 10295 10294 0
10654 9710 10301 0
10655 10301 10302 0
10655 10302 10656 0
10302 10303 10656 0
10656 10303 10304 0
10297 10298 10657 0
10292 10658 10300 0
10650 10658 10292 0
10304 10659 10656 0
10304 10307 10660 0
10304 10660 10659 0
10297 10657 10306 0
10012 10661 10662 0
10012 10662 10299 0
10299 10662 10279 0
10300 10658 10014 0
10663 10315 10308 0
10020 10308 10315 0
10003 10310 10648 0
10312 10664 10311 0
10658 10664 10014 0
10664 10312 10014 0
10307 10313 10665 0
10313 10666 10665 0
10666 10313 10667 0
10315 10663 10314 0
10316 10668 10669 0
10316 10669 10648 0
10316 10648 10310 0
10306 10668 10316 0
10667 10313 10318 0
10667 10318 10670 0
10670 10319 10314 0
10670 10318 10319 0
10671 10669 10672 0
10668 10673 10669 0
10673 10672 10669 0
10674 10320 10317 0
10321 10320 10674 0
10322 10675 10038 0
10676 10323 10677 0
10038 10678 10039 0
10679 10324 10323 0
10324 10679 10680 0
10040 10681 10682 0
10042 10040 10682 0
10041 10683 10040 0
10040 10683 10681 0
10678 10041 10039 0
10683 10041 10678 0
10677 10684 10685 0
10326 10684 10323 0
